ply
format ascii 1.0
element vertex 1310
property float x
property float y
property float z
property uchar red
property uchar green
property uchar blue
end_header
-4.10756 0.08402 0.78882 180 180 180
4.09101 0.11048 39.79226 180 180 180
4.23253 0.08124 27.06807 180 180 180
-4.33804 0.09887 43.63241 180 180 180
4.35725 0.07756 43.25629 180 180 180
4.06003 0.08942 2.29548 180 180 180
4.17738 0.07855 4.55665 180 180 180
4.11732 0.09852 26.37764 180 180 180
4.04492 0.07410 22.21932 180 180 180
-4.30767 0.06537 2.84171 180 180 180
-4.08409 0.09415 3.07965 180 180 180
-4.11860 0.09037 0.64161 180 180 180
-4.09323 0.05286 8.03649 180 180 180
4.14519 0.10924 38.17560 180 180 180
-4.30877 0.07727 35.48383 180 180 180
-4.16315 0.11503 24.11554 180 180 180
-4.18958 0.08403 30.45921 180 180 180
-4.32843 0.08817 1.12956 180 180 180
4.20286 0.06908 42.54708 180 180 180
4.17935 0.10058 36.45454 180 180 180
-4.31767 0.09037 25.20224 180 180 180
4.12010 0.05429 9.39476 180 180 180
-4.05093 0.09860 13.76047 180 180 180
4.31824 0.07155 20.53032 180 180 180
-4.37473 0.05148 3.91492 180 180 180
4.37458 0.08094 23.47327 180 180 180
-4.34632 0.08915 40.40060 180 180 180
-4.17192 0.10175 12.26796 180 180 180
4.11339 0.08377 28.83990 180 180 180
-4.06979 0.11412 1.84424 180 180 180
-4.13051 0.05410 16.95539 180 180 180
-4.00823 0.08648 5.08865 180 180 180
4.34570 0.06444 18.90667 180 180 180
-4.06453 0.09274 14.83624 180 180 180
-4.31044 0.09612 9.64253 180 180 180
4.37852 0.08226 43.75945 180 180 180
-4.10591 0.11856 9.16908 180 180 180
-4.02653 0.06640 28.20200 180 180 180
4.24532 0.11549 10.10410 180 180 180
-4.07036 0.08684 26.09350 180 180 180
-4.03240 0.09889 26.99115 180 180 180
-4.31133 0.05249 25.13212 180 180 180
4.39523 0.05169 0.61486 180 180 180
-4.11230 0.05815 3.19706 180 180 180
-4.25318 0.08902 27.01319 180 180 180
4.24003 0.10730 7.83741 180 180 180
4.01543 0.10243 33.24256 180 180 180
-4.33093 0.06394 33.97678 180 180 180
-4.29910 0.06785 17.64081 180 180 180
-4.05590 0.05173 21.31127 180 180 180
-4.15028 0.09731 26.13820 180 180 180
4.06174 0.09659 20.75303 180 180 180
4.22074 0.05847 11.81873 180 180 180
-4.33405 0.11477 41.19829 180 180 180
4.27506 0.09845 33.51160 180 180 180
4.36002 0.05514 0.37625 180 180 180
-4.28163 0.10580 20.84813 180 180 180
-4.03211 0.11476 35.24931 180 180 180
4.15421 0.07100 10.00970 180 180 180
4.39037 0.06176 27.51105 180 180 180
-4.09014 0.07160 11.34793 180 180 180
-4.29442 0.05563 5.80310 180 180 180
4.08050 0.07082 10.72910 180 180 180
4.11964 0.06678 38.75541 180 180 180
4.02683 0.05251 15.65303 180 180 180
4.22487 0.08221 41.21078 180 180 180
-4.02129 0.07092 39.13875 180 180 180
4.20620 0.08965 16.87032 180 180 180
4.39272 0.11186 24.14353 180 180 180
4.22275 0.09287 5.33215 180 180 180
-4.00990 0.11994 42.56147 180 180 180
4.26267 0.07808 44.34230 180 180 180
4.07799 0.07883 36.76741 180 180 180
-4.24621 0.09065 40.98842 180 180 180
4.02684 0.06919 33.97303 180 180 180
-4.34843 0.06430 36.86317 180 180 180
4.18685 0.08369 5.50673 180 180 180
-4.23703 0.08886 13.51682 180 180 180
-4.23519 0.08826 31.46480 180 180 180
4.29048 0.10105 8.47851 180 180 180
-4.29001 0.08517 28.09987 180 180 180
-4.05389 0.11977 19.70044 180 180 180
4.39158 0.07857 23.69162 180 180 180
-4.22128 0.05609 2.62619 180 180 180
-4.08500 0.05347 27.69492 180 180 180
4.15939 0.11819 7.73642 180 180 180
-4.27863 0.11954 42.30207 180 180 180
-4.07506 0.09446 39.06856 180 180 180
4.09396 0.05074 29.14297 180 180 180
-4.12742 0.07435 22.33071 180 180 180
-4.12317 0.06492 23.80524 180 180 180
-4.18827 0.09043 19.70051 180 180 180
4.17738 0.06563 35.03204 180 180 180
4.09834 0.10257 5.95596 180 180 180
4.14521 0.05061 9.03652 180 180 180
-4.05506 0.10125 35.25546 180 180 180
-4.09184 0.11797 21.93710 180 180 180
-4.07711 0.05522 38.75052 180 180 180
4.10494 0.05324 25.72852 180 180 180
4.26995 0.06059 42.16013 180 180 180
4.01059 0.08198 33.33723 180 180 180
4.31314 0.08870 4.22986 180 180 180
-4.05378 0.07152 33.75154 180 180 180
-4.09240 0.09841 34.10968 180 180 180
-4.11923 0.05859 8.71305 180 180 180
-4.13078 0.05702 29.61796 180 180 180
4.23028 0.07125 25.42675 180 180 180
-4.19011 0.09566 13.53200 180 180 180
-4.04251 0.06171 42.08982 180 180 180
4.28869 0.10394 12.98229 180 180 180
4.06137 0.05898 43.09178 180 180 180
4.09374 0.10385 32.00637 180 180 180
-4.34003 0.10397 12.13471 180 180 180
-4.13450 0.11475 21.45787 180 180 180
-4.29532 0.06902 39.99181 180 180 180
-4.21023 0.06382 25.40024 180 180 180
4.00597 0.08748 4.09633 180 180 180
-4.01664 0.05764 27.20120 180 180 180
4.33055 0.11901 41.05282 180 180 180
-4.04439 0.09807 15.57911 180 180 180
4.26726 0.05677 14.96269 180 180 180
-4.27970 0.08599 33.76795 180 180 180
-4.24814 0.09711 35.47031 180 180 180
4.14219 0.08173 41.59460 180 180 180
4.03229 0.09087 2.45202 180 180 180
4.15557 0.08994 2.80945 180 180 180
-4.30621 0.06023 6.26080 180 180 180
4.08130 0.05624 17.73479 180 180 180
4.03577 0.08705 9.57103 180 180 180
-4.16125 0.08322 17.24147 180 180 180
4.25247 0.09838 34.14906 180 180 180
-4.36695 0.07339 27.98573 180 180 180
-4.16110 0.06931 5.74639 180 180 180
-4.34236 0.06304 40.89712 180 180 180
-4.31579 0.06402 1.90061 180 180 180
-4.35253 0.10792 5.66513 180 180 180
-4.30724 0.09804 24.53887 180 180 180
-4.32256 0.07636 19.05689 180 180 180
4.18699 0.05652 39.61744 180 180 180
-4.02062 0.07565 29.00076 180 180 180
4.00803 0.07564 28.10302 180 180 180
4.13487 0.09165 25.03593 180 180 180
4.35909 0.09127 10.90800 180 180 180
-4.22622 0.08572 10.25603 180 180 180
-4.11035 0.11926 10.88702 180 180 180
4.06369 0.09536 5.50796 180 180 180
4.22987 0.08098 25.33244 180 180 180
4.22194 0.10132 11.36479 180 180 180
4.13812 0.10658 14.71152 180 180 180
4.23372 0.06446 10.21552 180 180 180
4.04977 0.09858 3.93248 180 180 180
-4.34760 0.05395 12.62981 180 180 180
-4.25647 0.10308 31.16606 180 180 180
4.03676 0.10160 28.79330 180 180 180
4.28263 0.08029 11.50108 180 180 180
-4.35249 0.09846 11.49004 180 180 180
4.39303 0.11315 27.50640 180 180 180
-4.21960 0.08781 1.27714 180 180 180
-4.04076 0.08987 31.56610 180 180 180
-4.19728 0.06901 41.37525 180 180 180
-4.24980 0.11332 41.26983 180 180 180
-4.15131 0.09320 2.64984 180 180 180
4.26260 0.11364 9.02829 180 180 180
4.09729 0.09586 38.22349 180 180 180
4.10880 0.10651 13.74616 180 180 180
4.09872 0.11975 11.67673 180 180 180
4.10102 0.07086 25.41316 180 180 180
4.20340 0.09128 41.44584 180 180 180
-4.01080 0.06770 2.37285 180 180 180
-4.32501 0.07059 3.70484 180 180 180
4.03741 0.08876 24.29038 180 180 180
-4.36886 0.07588 10.36140 180 180 180
-4.22851 0.08023 26.49302 180 180 180
-4.39492 0.09857 41.83678 180 180 180
-4.28915 0.08867 4.13153 180 180 180
-4.33759 0.07034 14.38426 180 180 180
-4.38172 0.10170 5.17338 180 180 180
-4.18409 0.05378 30.13589 180 180 180
4.14335 0.06458 9.51751 180 180 180
4.11004 0.10842 17.99425 180 180 180
4.21645 0.10814 18.30593 180 180 180
-4.26843 0.10089 29.77254 180 180 180
-4.26881 0.09954 25.77903 180 180 180
-4.26192 0.06812 33.53658 180 180 180
4.33780 0.06835 22.76415 180 180 180
-4.13599 0.07376 6.64913 180 180 180
-4.06284 0.08351 11.54530 180 180 180
-4.27210 0.07826 30.58782 180 180 180
-4.35956 0.08856 35.43886 180 180 180
4.27916 0.09712 9.12787 180 180 180
-4.01253 0.07212 23.63464 180 180 180
-4.25942 0.07933 38.56974 180 180 180
-4.29951 0.09064 14.16788 180 180 180
-4.38148 0.06345 36.58961 180 180 180
-4.08796 0.09370 15.70526 180 180 180
4.31721 0.05435 12.73787 180 180 180
4.01636 0.07247 10.88845 180 180 180
-4.13367 0.08623 19.75718 180 180 180
-4.11158 0.06367 6.83482 180 180 180
4.15228 0.05218 25.80373 180 180 180
4.21047 0.06944 4.16289 180 180 180
-4.06468 0.06695 16.77695 180 180 180
-4.35274 0.07181 12.19117 180 180 180
4.26394 0.06043 5.09956 180 180 180
4.30786 0.06635 12.09474 180 180 180
-4.03149 0.07416 42.78815 180 180 180
-4.04692 0.06239 22.70128 180 180 180
4.15978 0.07796 10.16603 180 180 180
-4.06285 0.11845 6.41714 180 180 180
-4.37909 0.11213 32.36951 180 180 180
-4.22468 0.06978 15.55688 180 180 180
-4.28587 0.06264 38.32069 180 180 180
-4.09574 0.06097 25.77732 180 180 180
-4.17123 0.11067 30.65836 180 180 180
-4.38458 0.09285 19.61054 180 180 180
4.25097 0.11615 26.85279 180 180 180
-4.27117 0.08842 27.45225 180 180 180
4.23861 0.11131 34.92849 180 180 180
-4.12041 0.10699 17.81682 180 180 180
4.17647 0.05302 5.05642 180 180 180
4.20735 0.11443 21.24970 180 180 180
4.04934 0.07772 16.61074 180 180 180
-4.18800 0.06589 11.97752 180 180 180
4.19997 0.09288 7.64443 180 180 180
-4.17950 0.09611 41.24557 180 180 180
4.14342 0.05953 9.29843 180 180 180
-4.24422 0.06472 40.42835 180 180 180
4.22754 0.05092 1.30206 180 180 180
4.25408 0.09785 30.85781 180 180 180
-4.01247 0.10167 16.08073 180 180 180
-4.24489 0.06951 2.33572 180 180 180
-4.09693 0.06335 39.39393 180 180 180
-4.14878 0.07625 31.82717 180 180 180
4.05804 0.08914 36.96938 180 180 180
-4.25910 0.10255 9.55542 180 180 180
-4.32324 0.09970 1.26204 180 180 180
-4.12203 0.10328 30.24467 180 180 180
4.38196 0.08358 18.11623 180 180 180
4.05146 0.05894 10.46403 180 180 180
4.01179 0.09252 11.05583 180 180 180
4.05263 0.07625 18.81034 180 180 180
4.29567 0.11005 28.06165 180 180 180
-4.23611 0.08988 37.05416 180 180 180
4.07519 0.07743 27.49846 180 180 180
4.05080 0.09149 35.02278 180 180 180
-4.14712 0.07630 8.08021 180 180 180
-4.06902 0.08074 35.84594 180 180 180
-4.08750 0.11213 10.25654 180 180 180
-4.22579 0.08642 39.48783 180 180 180
-4.16769 0.06666 4.08259 180 180 180
-4.28848 0.07487 4.72144 180 180 180
-4.30613 0.11682 35.84944 180 180 180
-4.03668 0.07248 8.72655 180 180 180
4.39239 0.05222 13.11105 180 180 180
-4.15905 0.10913 38.76673 180 180 180
-4.27095 0.06528 30.32823 180 180 180
-4.01275 0.09321 14.90820 180 180 180
4.05353 0.09328 34.99454 180 180 180
-4.24003 0.05068 24.90677 180 180 180
-4.33253 0.11298 39.92805 180 180 180
-4.29230 0.11381 18.64325 180 180 180
-4.14303 0.06076 15.97699 180 180 180
4.15998 0.10183 12.96339 180 180 180
4.08052 0.06682 3.40062 180 180 180
-4.27615 0.06008 11.03548 180 180 180
-4.02338 0.10403 35.51024 180 180 180
4.12726 0.11105 12.87131 180 180 180
4.19559 0.08914 25.89117 180 180 180
4.11825 0.06841 37.68113 180 180 180
-4.00364 0.11756 30.00105 180 180 180
4.00823 0.05909 28.01387 180 180 180
-4.13708 0.05741 30.55170 180 180 180
-4.10300 0.05282 12.05971 180 180 180
-4.09404 0.11757 11.50069 180 180 180
4.20893 0.07393 20.91760 180 180 180
4.15946 0.07362 44.69288 180 180 180
4.10678 0.07283 23.31421 180 180 180
-4.23901 0.10886 41.15919 180 180 180
4.19864 0.09653 0.67789 180 180 180
4.19886 0.07526 29.70734 180 180 180
4.30317 0.09528 5.56584 180 180 180
-4.16566 0.05546 28.76950 180 180 180
-4.29047 0.10812 21.85514 180 180 180
-4.30879 0.07243 25.74390 180 180 180
4.09697 0.06205 26.93290 180 180 180
-4.12498 0.08835 3.94300 180 180 180
-4.37336 0.07308 0.88808 180 180 180
-4.29788 0.07169 40.02647 180 180 180
-4.09752 0.09060 10.83807 180 180 180
-4.33968 0.07530 38.63607 180 180 180
4.22223 0.11405 28.62206 180 180 180
-4.39045 0.07970 16.41785 180 180 180
-4.30657 0.10487 29.35392 180 180 180
-4.16383 0.10843 42.11662 180 180 180
4.13523 0.07776 27.99244 180 180 180
-4.35030 0.11355 6.10227 180 180 180
4.19332 0.08914 25.48147 180 180 180
-4.03748 0.07146 6.04101 180 180 180
-4.19492 0.07058 32.69247 180 180 180
4.09956 0.07272 20.00860 180 180 180
-4.19089 0.09741 42.41994 180 180 180
4.38087 0.06853 27.28069 180 180 180
-4.27050 0.06695 19.47693 180 180 180
4.38398 0.05761 1.16057 180 180 180
4.39380 0.07544 12.49490 180 180 180
-4.27076 0.05035 3.00208 180 180 180
4.35475 0.06451 18.35717 180 180 180
-4.07054 0.07668 26.35744 180 180 180
-4.11875 0.10125 13.54884 180 180 180
4.17584 0.07866 35.42471 180 180 180
4.20828 0.05647 38.42016 180 180 180
-4.01441 0.06454 43.54280 180 180 180
-4.01949 0.08701 5.52079 180 180 180
-4.15646 0.10518 11.43266 180 180 180
4.12834 0.11901 0.10909 180 180 180
-4.25498 0.11246 1.00796 180 180 180
-4.09532 0.08427 5.74669 180 180 180
-4.03616 0.06269 27.07256 180 180 180
4.35004 0.10147 16.40380 180 180 180
4.10918 0.06807 6.68603 180 180 180
4.32929 0.10168 6.24682 180 180 180
-4.07510 0.08045 37.51061 180 180 180
-4.30623 0.09777 36.20925 180 180 180
-4.09934 0.07400 14.84612 180 180 180
-4.06549 0.10200 16.63129 180 180 180
-4.03889 0.10657 36.01692 180 180 180
-4.05437 0.05539 3.07340 180 180 180
-4.24537 0.06418 0.33361 180 180 180
-4.06104 0.06986 27.90426 180 180 180
4.39337 0.07892 3.34857 180 180 180
4.38835 0.07590 25.81894 180 180 180
-4.05597 0.05263 28.25208 180 180 180
4.32984 0.06831 12.42112 180 180 180
4.22210 0.07247 29.16942 180 180 180
4.19316 0.11993 18.27532 180 180 180
-4.20951 0.11928 26.07407 180 180 180
-4.16869 0.07240 32.15523 180 180 180
4.30826 0.07356 44.02505 180 180 180
-4.01353 0.11875 19.21263 180 180 180
4.34845 0.05646 35.37211 180 180 180
4.18255 0.07286 18.26330 180 180 180
-4.36293 0.07360 39.74896 180 180 180
-4.29070 0.09015 1.92288 180 180 180
-4.06283 0.08508 38.16734 180 180 180
4.28099 0.08060 27.68898 180 180 180
-4.29788 0.08405 8.42061 180 180 180
4.18068 0.09707 5.01885 180 180 180
4.28263 0.07756 35.55093 180 180 180
-4.20892 0.08301 10.74534 180 180 180
4.03038 0.09160 44.18478 180 180 180
-4.19194 0.06993 22.81989 180 180 180
-4.30422 0.08658 30.70448 180 180 180
4.09159 0.07883 28.69649 180 180 180
-4.28884 0.07517 13.58991 180 180 180
-4.02574 0.05214 33.51850 180 180 180
4.36589 0.09766 34.42008 180 180 180
-4.17768 0.11194 30.17156 180 180 180
4.30973 0.07669 41.57726 180 180 180
4.29537 0.08186 4.21023 180 180 180
4.09698 0.10035 29.56034 180 180 180
-4.33076 0.11631 31.79312 180 180 180
4.19795 0.10845 37.88408 180 180 180
4.18064 0.09277 10.59052 180 180 180
4.27783 0.06059 8.46899 180 180 180
4.33545 0.07441 41.16380 180 180 180
-4.33617 0.06192 21.45930 180 180 180
4.30613 0.06729 35.46322 180 180 180
4.22344 0.09899 2.89038 180 180 180
-4.16239 0.11900 24.54810 180 180 180
4.35899 0.09753 3.64239 180 180 180
4.03304 0.10846 8.17057 180 180 180
-4.34195 0.09810 8.61209 180 180 180
4.13264 0.05648 14.87034 180 180 180
4.08338 0.09716 34.44830 180 180 180
-4.21863 0.10884 41.40432 180 180 180
4.13918 0.09810 22.27133 180 180 180
-4.01990 0.08591 44.91706 180 180 180
-4.06892 0.08176 31.01704 180 180 180
4.27672 0.06821 12.17653 180 180 180
-4.11688 0.05015 4.01270 180 180 180
-4.35931 0.11784 1.09415 180 180 180
4.08148 0.05090 17.19786 180 180 180
-4.07929 0.07759 35.96982 180 180 180
-4.06572 0.05985 0.41054 180 180 180
4.20043 0.06501 12.85930 180 180 180
-4.39043 0.08002 23.01838 180 180 180
-4.16600 0.08564 22.74961 180 180 180
-4.18043 0.07673 35.30951 180 180 180
4.11229 0.11201 18.56590 180 180 180
-4.33493 0.07795 11.09985 180 180 180
-4.34308 0.11208 8.60562 180 180 180
-4.12715 0.11333 3.95685 180 180 180
4.01706 0.10841 40.62956 180 180 180
-4.28316 0.05698 7.73961 180 180 180
4.16049 0.10035 16.59015 180 180 180
-4.04714 0.11558 33.72488 180 180 180
4.15269 0.08642 30.63808 180 180 180
-4.38877 0.08437 6.13889 180 180 180
4.39382 0.09734 25.81465 180 180 180
4.17355 0.10979 35.73203 180 180 180
-4.16074 0.10166 30.28519 180 180 180
4.21650 0.07946 30.76177 180 180 180
-4.37985 0.11905 8.59324 180 180 180
-4.03582 0.05400 36.85543 180 180 180
-4.23465 0.11832 30.38265 180 180 180
4.14025 0.06862 0.67139 180 180 180
-4.37671 0.10837 29.47328 180 180 180
4.26475 0.10127 19.56205 180 180 180
4.33042 0.06187 6.66944 180 180 180
4.01159 0.05662 8.34969 180 180 180
-4.13466 0.10994 14.05773 180 180 180
4.24631 0.11104 3.21989 180 180 180
-4.06672 0.06271 44.32035 180 180 180
-4.22485 0.07132 41.10817 180 180 180
4.32306 0.09878 41.64407 180 180 180
4.23459 0.07080 13.49075 180 180 180
-4.14748 0.06901 4.59592 180 180 180
4.08659 0.11578 29.37097 180 180 180
-4.09181 0.06016 21.20649 180 180 180
4.05674 0.08942 24.56753 180 180 180
4.17237 0.05790 4.48934 180 180 180
-4.22590 0.07224 11.88286 180 180 180
-4.28630 0.06935 29.13246 180 180 180
4.31984 0.05077 2.39416 180 180 180
4.21464 0.08656 30.34522 180 180 180
-4.24738 0.11428 11.44977 180 180 180
4.10784 0.05705 37.96125 180 180 180
-4.13309 0.11233 37.02196 180 180 180
-4.31611 0.05928 11.97411 180 180 180
-4.29577 0.07810 39.68776 180 180 180
-4.12658 0.06776 31.93078 180 180 180
-4.33981 0.08163 0.69519 180 180 180
4.30342 0.06511 2.71951 180 180 180
-4.11973 0.10655 2.29378 180 180 180
-4.23241 0.10187 19.38666 180 180 180
4.06921 0.07225 20.11510 180 180 180
4.05761 0.05971 27.23693 180 180 180
-4.17651 0.05928 3.26259 180 180 180
-4.24500 0.11043 21.92080 180 180 180
4.27970 0.05388 27.78235 180 180 180
-4.38881 0.09094 8.76674 180 180 180
-4.17462 0.11833 43.93910 180 180 180
4.21789 0.10060 14.97849 180 180 180
4.14227 0.10765 32.13011 180 180 180
4.09212 0.10246 35.23751 180 180 180
4.26229 0.09028 0.20125 180 180 180
-4.21369 0.11660 4.16275 180 180 180
-4.14064 0.09153 3.76295 180 180 180
4.03613 0.07711 42.97521 180 180 180
-4.06999 0.11845 18.56113 180 180 180
-4.35781 0.11364 20.24641 180 180 180
4.09617 0.10744 29.37163 180 180 180
-4.25606 0.05738 5.83415 180 180 180
4.04822 0.07949 24.50773 180 180 180
-4.35029 0.08580 34.16078 180 180 180
4.14481 0.06587 21.65136 180 180 180
-4.04731 0.11133 29.01098 180 180 180
4.16449 0.11272 36.93150 180 180 180
4.01042 0.09718 29.65673 180 180 180
-4.19568 0.09179 10.69712 180 180 180
-4.39606 0.08893 38.22890 180 180 180
-4.30399 0.09185 23.00631 180 180 180
4.38851 0.10335 13.79147 180 180 180
-4.24133 0.09567 30.56214 180 180 180
-4.14033 0.05999 20.57841 180 180 180
4.04571 0.06909 39.01318 180 180 180
4.06752 0.07070 23.42131 180 180 180
-4.13973 0.08038 31.01536 180 180 180
-4.19375 0.08961 15.94032 180 180 180
4.07136 0.10088 39.50280 180 180 180
4.04311 0.07213 16.98878 180 180 180
4.04804 0.09983 25.04827 180 180 180
4.30277 0.11346 2.45563 180 180 180
-4.19726 0.11773 17.96222 180 180 180
4.16623 0.09448 26.33815 180 180 180
-4.36345 0.06338 34.13829 180 180 180
-4.02361 0.09620 43.33043 180 180 180
4.23005 0.07686 36.56494 180 180 180
4.13724 0.09271 39.17594 180 180 180
4.38477 0.05494 7.92925 180 180 180
-4.01747 0.10358 19.50818 180 180 180
4.34981 0.11694 13.45288 180 180 180
-4.32335 0.11399 20.03544 180 180 180
-4.20015 0.11010 9.21375 180 180 180
-4.13013 0.05879 21.06348 180 180 180
-4.28779 0.08180 3.71990 180 180 180
-4.00964 0.05557 12.27466 180 180 180
4.01259 0.09285 31.73223 180 180 180
-4.18041 0.11205 11.52078 180 180 180
-4.17592 0.09224 29.80806 180 180 180
4.32392 0.10374 29.34200 180 180 180
4.23438 0.05420 10.30600 180 180 180
4.02870 0.09247 13.25869 180 180 180
4.29208 0.08757 8.14924 180 180 180
-4.34733 0.11085 43.99970 180 180 180
-4.24520 0.08694 16.11003 180 180 180
4.04542 0.06861 40.78728 180 180 180
-4.28981 0.08675 17.17256 180 180 180
4.00243 0.06176 3.75664 180 180 180
4.18543 0.06796 16.95325 180 180 180
4.18740 0.08142 42.28591 180 180 180
-4.01538 0.05442 22.51802 180 180 180
-4.16037 0.05738 31.85904 180 180 180
-4.05698 0.11610 26.05492 180 180 180
4.08416 0.11784 26.81645 180 180 180
-4.02557 0.06041 35.06904 180 180 180
-4.37815 0.05893 4.97203 180 180 180
-4.01384 0.07243 19.17975 180 180 180
4.33305 0.05314 23.25138 180 180 180
4.01997 0.11997 19.02732 180 180 180
4.31194 0.10554 42.44849 180 180 180
4.07918 0.09647 11.62994 180 180 180
-4.22450 0.10941 30.71335 180 180 180
-4.29239 0.06267 20.12132 180 180 180
-4.32924 0.10638 37.64644 180 180 180
4.24684 0.06083 29.92372 180 180 180
4.23905 0.07642 1.30684 180 180 180
4.32356 0.10733 21.78518 180 180 180
4.29229 0.08848 13.03363 180 180 180
-4.27301 0.08721 36.84143 180 180 180
-4.26791 0.07919 21.23187 180 180 180
4.17407 0.09011 13.05100 180 180 180
4.03953 0.08410 0.11339 180 180 180
4.36905 0.07612 41.42281 180 180 180
4.24158 0.05252 28.89729 180 180 180
-4.05096 0.05656 23.53599 180 180 180
-4.24421 0.06885 2.39807 180 180 180
-4.08066 0.06092 12.80937 180 180 180
-4.38958 0.10236 17.44749 180 180 180
4.30640 0.05488 8.39228 180 180 180
-4.06219 0.11880 43.32885 180 180 180
-4.24905 0.05781 41.45750 180 180 180
4.08513 0.08476 28.37298 180 180 180
4.12416 0.06091 2.06268 180 180 180
-4.24366 0.09840 21.31987 180 180 180
4.32935 0.11734 40.73555 180 180 180
-4.17097 0.09183 40.81186 180 180 180
4.25779 0.11491 44.03450 180 180 180
4.17249 0.05813 17.21856 180 180 180
-4.37873 0.10923 38.72407 180 180 180
4.29258 0.05609 8.57779 180 180 180
-4.24339 0.07606 9.77696 180 180 180
-4.09418 0.05598 4.85717 180 180 180
4.32367 0.08042 11.85766 180 180 180
-4.24035 0.06366 30.19922 180 180 180
-4.08191 0.09837 18.49536 180 180 180
-4.19240 0.10131 7.00133 180 180 180
-4.17549 0.07264 22.56134 180 180 180
-4.04240 0.08805 34.89142 180 180 180
-4.24801 0.06148 26.58440 180 180 180
4.27647 0.07159 6.95178 180 180 180
-4.06046 0.10484 31.07687 180 180 180
-4.21855 0.11763 32.94107 180 180 180
4.15798 0.12000 30.62974 180 180 180
4.00889 0.07551 40.98987 180 180 180
4.06679 0.09493 12.44950 180 180 180
-4.11910 0.11571 44.84976 180 180 180
-4.01270 0.08163 24.71605 180 180 180
-4.03264 0.09831 38.27555 180 180 180
-4.39282 0.09923 33.98677 180 180 180
4.00223 0.07463 11.40919 180 180 180
4.25208 0.06058 9.60390 180 180 180
4.06541 0.09152 29.60438 180 180 180
-4.05067 0.10616 20.90363 180 180 180
-4.28637 0.11406 42.41415 180 180 180
4.13949 0.08642 35.14441 180 180 180
4.00066 0.09189 29.75195 180 180 180
4.20181 0.08465 15.82289 180 180 180
-4.04534 0.08673 14.99300 180 180 180
-4.23718 0.11435 7.96130 180 180 180
-4.30712 0.07526 31.02569 180 180 180
4.34015 0.09782 14.32909 180 180 180
4.15051 0.08420 42.90911 180 180 180
-4.38477 0.07344 20.55203 180 180 180
4.33807 0.08739 36.67981 180 180 180
-4.35503 0.11000 1.35852 180 180 180
4.14542 0.08024 1.83738 180 180 180
4.21849 0.06598 27.36537 180 180 180
-4.37455 0.06594 10.37090 180 180 180
-4.29314 0.09814 44.28965 180 180 180
-4.18177 0.10712 26.25365 180 180 180
-4.05964 0.09323 14.32957 180 180 180
2.72982 0.10533 5.04320 245 120 50
2.39640 0.05093 5.00179 245 120 50
2.63812 0.11840 5.00437 245 120 50
2.69516 0.13797 5.00197 245 120 50
2.43478 0.07354 5.08132 245 120 50
2.66991 0.14899 5.05077 245 120 50
2.62307 0.11837 5.05027 245 120 50
2.55339 0.05442 4.79807 245 120 50
2.66799 0.06089 4.95995 245 120 50
2.54135 0.17779 4.96062 245 120 50
2.54370 0.09402 4.99819 245 120 50
2.54076 0.09567 4.90905 245 120 50
2.75343 0.05502 4.84485 245 120 50
2.65634 0.05193 4.82955 245 120 50
2.65839 0.12845 5.04561 245 120 50
2.57617 0.16307 5.06037 245 120 50
2.50558 0.05331 4.85484 245 120 50
2.75707 0.06341 4.92157 245 120 50
2.72968 0.05113 4.82777 245 120 50
2.52502 0.07280 4.85219 245 120 50
2.54612 0.18404 5.03287 245 120 50
2.66237 0.11430 4.89296 245 120 50
2.45650 0.05700 4.89049 245 120 50
2.43229 0.05618 5.05445 245 120 50
2.73750 0.05262 4.91389 245 120 50
2.50486 0.11561 4.96025 245 120 50
2.57644 0.09032 4.86385 245 120 50
2.71585 0.10044 4.90786 245 120 50
2.71531 0.08760 4.97951 245 120 50
2.62010 0.09063 5.12727 245 120 50
2.52216 0.08949 4.88841 245 120 50
2.59589 0.11567 5.03460 245 120 50
2.71884 0.05004 4.87405 245 120 50
2.44826 0.09923 5.05455 245 120 50
2.53211 0.06501 4.86217 245 120 50
2.48094 0.14305 5.04468 245 120 50
2.69607 0.10335 4.93987 245 120 50
2.71324 0.13370 4.99748 245 120 50
2.47848 0.05132 4.83694 245 120 50
2.57098 0.12327 4.90241 245 120 50
2.73350 0.07579 4.91481 245 120 50
2.72307 0.12556 5.02952 245 120 50
2.49856 0.10600 5.09253 245 120 50
2.77382 0.05598 4.99120 245 120 50
2.67259 0.06824 5.11134 245 120 50
2.66344 0.06780 4.81440 245 120 50
2.63476 0.08337 5.07204 245 120 50
2.69503 0.08821 4.88558 245 120 50
2.59804 0.25283 5.02616 245 120 50
2.79023 0.05589 4.97720 245 120 50
2.74481 0.10670 4.99930 245 120 50
2.65877 0.07035 4.90755 245 120 50
2.69620 0.13341 4.92966 245 120 50
2.45535 0.05538 4.92931 245 120 50
2.58428 0.05174 5.08936 245 120 50
2.57905 0.05432 5.20398 245 120 50
2.59203 0.05113 5.14417 245 120 50
2.59717 0.20732 5.02305 245 120 50
2.80709 0.05457 5.02777 245 120 50
2.61186 0.16245 5.10763 245 120 50
2.60591 0.21896 7.63437 245 120 50
2.55385 0.12715 7.58619 245 120 50
2.55250 0.09402 7.46643 245 120 50
2.51855 0.08776 7.44929 245 120 50
2.65612 0.08714 7.63446 245 120 50
2.60124 0.09715 7.45278 245 120 50
2.63023 0.07629 7.77344 245 120 50
2.55429 0.06654 7.54309 245 120 50
2.58860 0.11286 7.45212 245 120 50
2.50778 0.10245 7.63513 245 120 50
2.48901 0.08703 7.49003 245 120 50
2.53112 0.12541 7.57075 245 120 50
2.70674 0.07295 7.60828 245 120 50
2.67505 0.09157 7.47796 245 120 50
2.59771 0.10820 7.73771 245 120 50
2.51333 0.16642 7.62638 245 120 50
2.75601 0.05474 7.73829 245 120 50
2.61980 0.06606 7.75733 245 120 50
2.41455 0.06382 7.61899 245 120 50
2.46690 0.05009 7.66213 245 120 50
2.50711 0.10841 7.66245 245 120 50
2.78132 0.06419 7.54569 245 120 50
2.61018 0.08768 7.49107 245 120 50
2.60637 0.14002 7.49867 245 120 50
2.65934 0.06621 7.43184 245 120 50
2.68842 0.16499 7.52568 245 120 50
2.53773 0.10182 7.72367 245 120 50
2.55824 0.07536 7.44076 245 120 50
2.72164 0.09450 7.65462 245 120 50
2.55453 0.05021 7.80327 245 120 50
2.63041 0.16640 7.52077 245 120 50
2.66969 0.12642 7.69305 245 120 50
2.60002 0.16577 7.54870 245 120 50
2.69962 0.06483 7.42685 245 120 50
2.65099 0.09424 7.59209 245 120 50
2.60593 0.21535 7.63341 245 120 50
2.52776 0.06933 7.72886 245 120 50
2.41778 0.06286 7.53145 245 120 50
2.58209 0.06224 7.49192 245 120 50
2.50008 0.11177 7.54331 245 120 50
2.61445 0.05015 7.80355 245 120 50
2.66839 0.11420 7.53953 245 120 50
2.76746 0.05011 7.50252 245 120 50
2.65912 0.05306 7.57663 245 120 50
2.53308 0.17133 7.67982 245 120 50
2.66059 0.16497 7.66523 245 120 50
2.60654 0.06680 7.74692 245 120 50
2.51182 0.17238 7.57496 245 120 50
2.55571 0.23320 7.59803 245 120 50
2.70395 0.13346 7.66706 245 120 50
2.57857 0.05490 7.45682 245 120 50
2.63636 0.05704 7.53016 245 120 50
2.47244 0.07595 7.51908 245 120 50
2.51977 0.14651 7.65651 245 120 50
2.44693 0.07786 7.65194 245 120 50
2.49402 0.12055 7.53980 245 120 50
2.63811 0.08423 7.54664 245 120 50
2.56004 0.11595 7.48577 245 120 50
2.64574 0.08998 7.74782 245 120 50
2.74451 0.05797 7.56032 245 120 50
2.62226 0.09089 10.37096 245 120 50
2.61505 0.11579 10.18400 245 120 50
2.67014 0.06469 10.37256 245 120 50
2.50820 0.05092 10.37286 245 120 50
2.71128 0.05294 10.36050 245 120 50
2.61416 0.07706 10.34765 245 120 50
2.64633 0.10731 10.11176 245 120 50
2.43047 0.05553 10.25655 245 120 50
2.53609 0.07317 10.02532 245 120 50
2.60964 0.17221 10.20992 245 120 50
2.66137 0.06388 10.32713 245 120 50
2.54108 0.11641 10.33596 245 120 50
2.66084 0.09689 10.23255 245 120 50
2.51160 0.06675 10.36336 245 120 50
2.48255 0.10073 10.18182 245 120 50
2.65077 0.13792 10.33454 245 120 50
2.79419 0.05094 10.18033 245 120 50
2.57190 0.05863 10.35151 245 120 50
2.67014 0.06916 10.04735 245 120 50
2.45891 0.09104 10.09296 245 120 50
2.57271 0.16821 10.17431 245 120 50
2.69708 0.12211 10.26374 245 120 50
2.45624 0.07370 10.07773 245 120 50
2.53177 0.07828 10.02797 245 120 50
2.56124 0.09932 10.06843 245 120 50
2.43056 0.06302 10.17483 245 120 50
2.57255 0.06003 10.33703 245 120 50
2.69192 0.12329 10.20908 245 120 50
2.53962 0.18146 10.13545 245 120 50
2.51539 0.07674 10.12859 245 120 50
2.45430 0.08416 10.09753 245 120 50
2.41581 0.05008 10.21834 245 120 50
2.58714 0.06737 10.06368 245 120 50
2.57642 0.09422 10.23445 245 120 50
2.58057 0.05928 10.00407 245 120 50
2.57427 0.05002 9.99840 245 120 50
2.74604 0.06136 10.15344 245 120 50
2.74895 0.05392 10.26971 245 120 50
2.64751 0.10071 10.04931 245 120 50
2.54136 0.05318 10.37458 245 120 50
2.72175 0.09556 10.22776 245 120 50
2.47565 0.09134 10.26686 245 120 50
2.50179 0.14147 10.17194 245 120 50
2.53669 0.06882 10.32232 245 120 50
2.44752 0.08092 10.14427 245 120 50
2.56718 0.19058 10.21953 245 120 50
2.61084 0.13817 10.21304 245 120 50
2.50490 0.09134 10.05742 245 120 50
2.72972 0.08114 10.31618 245 120 50
2.67585 0.13599 10.19900 245 120 50
2.54497 0.05498 10.01985 245 120 50
2.63277 0.18314 10.14657 245 120 50
2.48768 0.09808 10.17682 245 120 50
2.50087 0.11150 10.10749 245 120 50
2.70711 0.07709 10.24483 245 120 50
2.58720 0.07788 10.12817 245 120 50
2.53763 0.08694 10.08614 245 120 50
2.44640 0.07740 10.23740 245 120 50
2.63352 0.05346 9.99997 245 120 50
2.42128 0.05157 10.18455 245 120 50
2.75276 0.09549 12.74798 245 120 50
2.64488 0.07297 12.70650 245 120 50
2.46512 0.09096 12.73497 245 120 50
2.43760 0.08186 12.82172 245 120 50
2.57938 0.10362 12.88176 245 120 50
2.68608 0.06321 12.95575 245 120 50
2.56956 0.11182 12.88188 245 120 50
2.67970 0.06411 12.95566 245 120 50
2.42171 0.05043 12.83264 245 120 50
2.68334 0.05974 12.93543 245 120 50
2.70350 0.09054 12.69336 245 120 50
2.69519 0.09242 12.91980 245 120 50
2.40457 0.05768 12.73905 245 120 50
2.43511 0.06159 12.79825 245 120 50
2.60362 0.05935 12.99158 245 120 50
2.63755 0.16325 12.71851 245 120 50
2.49113 0.05149 12.94777 245 120 50
2.69457 0.07313 12.69263 245 120 50
2.71834 0.06268 12.68919 245 120 50
2.71914 0.05982 12.66764 245 120 50
2.71365 0.11044 12.86726 245 120 50
2.71532 0.05078 12.93971 245 120 50
2.51625 0.06058 12.95187 245 120 50
2.55916 0.06100 12.78655 245 120 50
2.57185 0.08411 12.69522 245 120 50
2.52892 0.13492 12.69578 245 120 50
2.64161 0.06828 12.75180 245 120 50
2.53309 0.05845 12.91403 245 120 50
2.57400 0.15733 12.87028 245 120 50
2.55522 0.05140 12.91587 245 120 50
2.68290 0.06281 12.92437 245 120 50
2.51904 0.11001 12.90790 245 120 50
2.46505 0.10382 12.72857 245 120 50
2.65690 0.07871 12.83692 245 120 50
2.59783 0.08467 12.93438 245 120 50
2.48306 0.09534 12.74661 245 120 50
2.50991 0.07652 12.66373 245 120 50
2.53960 0.06266 12.97130 245 120 50
2.66962 0.11048 12.68920 245 120 50
2.52850 0.10094 12.91165 245 120 50
2.74537 0.09819 12.79224 245 120 50
2.59213 0.08724 12.97043 245 120 50
2.58379 0.05823 12.59439 245 120 50
2.54440 0.13356 12.69191 245 120 50
2.65350 0.11649 12.82238 245 120 50
2.54224 0.07442 12.79144 245 120 50
2.72983 0.09347 12.74098 245 120 50
2.62979 0.07458 12.69699 245 120 50
2.62704 0.06059 12.64907 245 120 50
2.59639 0.12236 12.68717 245 120 50
2.49656 0.05338 12.62486 245 120 50
2.52817 0.05837 12.97265 245 120 50
2.75739 0.06596 12.85149 245 120 50
2.75211 0.06097 12.68892 245 120 50
2.57464 0.08358 12.86613 245 120 50
2.40248 0.05871 12.78104 245 120 50
2.63209 0.06679 12.60854 245 120 50
2.62602 0.05736 12.96438 245 120 50
2.63801 0.08942 12.81540 245 120 50
2.48075 0.09898 12.76887 245 120 50
2.54731 0.05401 15.20092 245 120 50
2.60359 0.12967 15.41886 245 120 50
2.48099 0.11940 15.35681 245 120 50
2.51409 0.07036 15.55942 245 120 50
2.54149 0.09466 15.44847 245 120 50
2.52513 0.07534 15.53459 245 120 50
2.55103 0.13176 15.37913 245 120 50
2.51455 0.07383 15.53519 245 120 50
2.47728 0.07498 15.29071 245 120 50
2.69331 0.07332 15.32273 245 120 50
2.44758 0.08120 15.42155 245 120 50
2.48225 0.12269 15.36853 245 120 50
2.71974 0.12896 15.44168 245 120 50
2.53349 0.11405 15.48232 245 120 50
2.56084 0.11323 15.24274 245 120 50
2.50175 0.14575 15.33706 245 120 50
2.51434 0.05099 15.23826 245 120 50
2.50397 0.07842 15.25884 245 120 50
2.58361 0.08865 15.55105 245 120 50
2.62636 0.08169 15.41442 245 120 50
2.49744 0.07347 15.30758 245 120 50
2.56022 0.10016 15.53451 245 120 50
2.52391 0.17807 15.38320 245 120 50
2.76581 0.06124 15.36489 245 120 50
2.62905 0.07508 15.33678 245 120 50
2.67547 0.07632 15.46656 245 120 50
2.40702 0.07304 15.41227 245 120 50
2.62285 0.19223 15.43468 245 120 50
2.46598 0.06131 15.53796 245 120 50
2.56304 0.05129 15.60636 245 120 50
2.63315 0.16513 15.31460 245 120 50
2.49479 0.06506 15.26757 245 120 50
2.50488 0.06260 15.25264 245 120 50
2.51931 0.05358 15.22564 245 120 50
2.78427 0.05027 15.31684 245 120 50
2.60655 0.11414 15.49282 245 120 50
2.63972 0.06750 15.57889 245 120 50
2.46228 0.05599 15.53080 245 120 50
2.75351 0.06087 15.31192 245 120 50
2.63692 0.09930 15.28982 245 120 50
2.50728 0.14084 15.44913 245 120 50
2.61058 0.05574 15.19642 245 120 50
2.48683 0.14410 15.42209 245 120 50
2.44726 0.07004 15.46238 245 120 50
2.51846 0.06912 15.41695 245 120 50
2.55948 0.14698 15.37536 245 120 50
2.51992 0.05095 15.20809 245 120 50
2.62047 0.13917 15.28382 245 120 50
2.62456 0.07648 15.27950 245 120 50
2.59915 0.05637 15.20189 245 120 50
2.75420 0.06440 15.40626 245 120 50
2.65223 0.06484 15.56453 245 120 50
2.62214 0.08490 15.47794 245 120 50
2.65414 0.10644 15.26504 245 120 50
2.57450 0.13709 15.35182 245 120 50
2.70096 0.05519 15.55160 245 120 50
2.61326 0.07377 15.38663 245 120 50
2.58933 0.20015 15.34891 245 120 50
2.40232 0.06111 15.34955 245 120 50
2.57364 0.09538 15.26231 245 120 50
2.73186 0.13228 18.03985 245 120 50
2.57161 0.13623 17.98165 245 120 50
2.66372 0.06537 18.15977 245 120 50
2.49060 0.10067 18.05889 245 120 50
2.50912 0.08453 18.16031 245 120 50
2.71293 0.09343 18.05810 245 120 50
2.54841 0.06780 17.89887 245 120 50
2.62417 0.09419 17.91154 245 120 50
2.54538 0.05272 18.08471 245 120 50
2.72850 0.08249 18.12893 245 120 50
2.74049 0.11663 17.98547 245 120 50
2.59204 0.09712 18.12747 245 120 50
2.70662 0.12252 18.06453 245 120 50
2.61777 0.05029 17.79174 245 120 50
2.60158 0.09454 18.14100 245 120 50
2.64378 0.13813 17.90034 245 120 50
2.55485 0.06266 17.90476 245 120 50
2.54329 0.22561 17.98760 245 120 50
2.73608 0.06219 18.09046 245 120 50
2.76630 0.05949 17.99584 245 120 50
2.61223 0.21972 18.00641 245 120 50
2.62113 0.06572 17.81365 245 120 50
2.67310 0.17877 18.07540 245 120 50
2.49948 0.05018 18.15493 245 120 50
2.76550 0.07162 18.01468 245 120 50
2.43158 0.06447 17.98202 245 120 50
2.66864 0.08892 18.13406 245 120 50
2.57538 0.14912 18.01397 245 120 50
2.70624 0.06716 18.15722 245 120 50
2.58269 0.14894 17.91677 245 120 50
2.49710 0.11507 17.94216 245 120 50
2.73857 0.05636 18.11887 245 120 50
2.65496 0.07896 18.00992 245 120 50
2.62698 0.06919 17.89477 245 120 50
2.54564 0.05189 18.18803 245 120 50
2.74570 0.05346 17.92927 245 120 50
2.48605 0.06002 18.04277 245 120 50
2.53804 0.11586 18.10984 245 120 50
2.67336 0.14966 17.98062 245 120 50
2.49444 0.05436 18.06971 245 120 50
2.72281 0.06806 18.03215 245 120 50
2.74631 0.06034 17.94197 245 120 50
2.64516 0.15575 17.96898 245 120 50
2.49753 0.09280 17.99644 245 120 50
2.63948 0.07781 17.98622 245 120 50
2.53450 0.07132 17.92991 245 120 50
2.44291 0.09341 17.97855 245 120 50
2.65902 0.13350 18.03788 245 120 50
2.69434 0.14873 18.05922 245 120 50
2.74351 0.07559 18.06136 245 120 50
2.49329 0.06293 17.89514 245 120 50
2.60932 0.25305 17.96697 245 120 50
2.51572 0.08939 18.06567 245 120 50
2.76544 0.05860 18.04226 245 120 50
2.73750 0.06164 18.11461 245 120 50
2.50201 0.05703 17.99383 245 120 50
2.50820 0.11634 18.11615 245 120 50
2.69950 0.07506 17.85176 245 120 50
2.49812 0.15799 18.01784 245 120 50
2.78222 0.05068 17.99189 245 120 50
2.64735 0.07320 20.46907 245 120 50
2.51460 0.16354 20.59505 245 120 50
2.75091 0.07298 20.60620 245 120 50
2.73821 0.05729 20.50392 245 120 50
2.48779 0.05655 20.70458 245 120 50
2.58129 0.21516 20.62617 245 120 50
2.54403 0.08612 20.45097 245 120 50
2.48880 0.05521 20.71106 245 120 50
2.65109 0.12891 20.69989 245 120 50
2.62873 0.08324 20.70472 245 120 50
2.48055 0.10949 20.66930 245 120 50
2.58562 0.07035 20.45872 245 120 50
2.47287 0.11217 20.67212 245 120 50
2.56844 0.05755 20.66022 245 120 50
2.65293 0.07385 20.46301 245 120 50
2.39070 0.05175 20.56444 245 120 50
2.40210 0.05018 20.54861 245 120 50
2.59690 0.06732 20.71104 245 120 50
2.57897 0.16421 20.67651 245 120 50
2.65003 0.12386 20.55494 245 120 50
2.56567 0.11543 20.52126 245 120 50
2.78234 0.07402 20.63041 245 120 50
2.48071 0.07932 20.48512 245 120 50
2.60333 0.05309 20.72434 245 120 50
2.58821 0.11395 20.70384 245 120 50
2.56700 0.09578 20.46009 245 120 50
2.62623 0.22051 20.55972 245 120 50
2.51255 0.10604 20.60987 245 120 50
2.61576 0.06205 20.75721 245 120 50
2.69087 0.10535 20.57363 245 120 50
2.55343 0.08762 20.46305 245 120 50
2.44170 0.05771 20.72166 245 120 50
2.80230 0.05003 20.54636 245 120 50
2.45800 0.05159 20.71630 245 120 50
2.53188 0.11415 20.67859 245 120 50
2.68281 0.05209 20.78950 245 120 50
2.61853 0.08905 20.76922 245 120 50
2.70396 0.12576 20.62827 245 120 50
2.47392 0.05945 20.69262 245 120 50
2.73140 0.06367 20.49822 245 120 50
2.50758 0.08700 20.71232 245 120 50
2.76818 0.08030 20.64425 245 120 50
2.66229 0.19739 20.55617 245 120 50
2.70492 0.09051 20.69904 245 120 50
2.66707 0.10502 20.66656 245 120 50
2.50861 0.06711 20.63629 245 120 50
2.54573 0.11574 20.72502 245 120 50
2.74578 0.09095 20.56877 245 120 50
2.71318 0.09317 20.52139 245 120 50
2.55153 0.07165 20.57696 245 120 50
2.54505 0.09752 20.70344 245 120 50
2.60269 0.06588 20.75147 245 120 50
2.75027 0.05131 20.59918 245 120 50
2.62536 0.05167 20.74918 245 120 50
2.53064 0.08696 20.71486 245 120 50
2.68121 0.08356 20.70895 245 120 50
2.66386 0.07475 20.75282 245 120 50
2.53594 0.06511 20.76642 245 120 50
2.49242 0.06681 20.55174 245 120 50
2.63216 0.08860 20.49577 245 120 50
2.61302 0.13540 23.08897 245 120 50
2.70129 0.09208 23.21402 245 120 50
2.78357 0.05069 23.31705 245 120 50
2.64619 0.16740 23.27770 245 120 50
2.76509 0.06454 23.14353 245 120 50
2.61573 0.07842 23.09431 245 120 50
2.78132 0.05445 23.26265 245 120 50
2.52092 0.10659 23.10334 245 120 50
2.52062 0.18700 23.22977 245 120 50
2.51140 0.10095 23.12835 245 120 50
2.68961 0.09005 23.33235 245 120 50
2.51120 0.06970 23.06656 245 120 50
2.74659 0.05734 23.31160 245 120 50
2.74128 0.07169 23.30891 245 120 50
2.49380 0.05149 23.37307 245 120 50
2.56435 0.17008 23.16460 245 120 50
2.55837 0.08743 23.07652 245 120 50
2.66292 0.06211 23.01604 245 120 50
2.59941 0.16216 23.17686 245 120 50
2.44836 0.05471 23.20167 245 120 50
2.46476 0.09268 23.21309 245 120 50
2.72946 0.05780 23.10537 245 120 50
2.49168 0.14675 23.21045 245 120 50
2.54615 0.17483 23.25848 245 120 50
2.53271 0.09613 23.29735 245 120 50
2.74077 0.06740 23.17080 245 120 50
2.59491 0.14286 23.07737 245 120 50
2.70413 0.11578 23.23131 245 120 50
2.58174 0.19539 23.28533 245 120 50
2.47464 0.09217 23.26190 245 120 50
2.55490 0.09760 23.25168 245 120 50
2.56554 0.07402 23.04084 245 120 50
2.53193 0.14645 23.23367 245 120 50
2.72851 0.11558 23.20442 245 120 50
2.65987 0.08372 23.34928 245 120 50
2.50674 0.05510 23.19274 245 120 50
2.52014 0.14647 23.17522 245 120 50
2.67517 0.13195 23.26233 245 120 50
2.46139 0.05606 23.11160 245 120 50
2.61518 0.06028 23.36214 245 120 50
2.53782 0.06286 23.04706 245 120 50
2.45088 0.07654 23.08685 245 120 50
2.50651 0.12001 23.12619 245 120 50
2.68516 0.13849 23.21866 245 120 50
2.59646 0.05873 23.01075 245 120 50
2.54251 0.10671 23.24929 245 120 50
2.50499 0.09112 23.09353 245 120 50
2.54378 0.07008 23.19131 245 120 50
2.57889 0.06814 23.04530 245 120 50
2.69727 0.14853 23.15076 245 120 50
2.45476 0.09642 23.25726 245 120 50
2.61356 0.09135 23.04600 245 120 50
2.44111 0.06001 23.24586 245 120 50
2.42220 0.07681 23.29824 245 120 50
2.61150 0.08839 23.36473 245 120 50
2.55665 0.13512 23.08049 245 120 50
2.52001 0.05368 23.22435 245 120 50
2.57848 0.21554 23.26326 245 120 50
2.71187 0.08164 23.25196 245 120 50
2.69294 0.05009 23.05901 245 120 50
2.63375 0.18450 25.87923 245 120 50
2.49035 0.07275 25.78070 245 120 50
2.75722 0.05491 25.78484 245 120 50
2.65756 0.05092 25.96041 245 120 50
2.73912 0.05334 25.71783 245 120 50
2.60719 0.15676 25.90609 245 120 50
2.62463 0.13993 25.79356 245 120 50
2.56228 0.13921 25.73540 245 120 50
2.46908 0.09532 25.81101 245 120 50
2.45154 0.07084 25.77888 245 120 50
2.74661 0.09779 25.79988 245 120 50
2.44019 0.08372 25.76645 245 120 50
2.63881 0.05126 25.62599 245 120 50
2.68041 0.05138 25.96242 245 120 50
2.57751 0.14689 25.91154 245 120 50
2.57328 0.12954 25.91072 245 120 50
2.65358 0.15616 25.77555 245 120 50
2.50634 0.12321 25.77849 245 120 50
2.69682 0.12666 25.82939 245 120 50
2.41084 0.05683 25.85763 245 120 50
2.55773 0.21042 25.78663 245 120 50
2.63304 0.08954 25.67372 245 120 50
2.71122 0.11680 25.69544 245 120 50
2.75962 0.07541 25.70484 245 120 50
2.59374 0.05307 25.58692 245 120 50
2.49112 0.08914 25.68357 245 120 50
2.62662 0.20733 25.78681 245 120 50
2.51327 0.13602 25.84461 245 120 50
2.59404 0.09639 25.89676 245 120 50
2.44159 0.08028 25.79429 245 120 50
2.77259 0.06033 25.77587 245 120 50
2.66466 0.14464 25.91728 245 120 50
2.64063 0.05246 25.97524 245 120 50
2.47317 0.05054 25.65581 245 120 50
2.69489 0.11784 25.73711 245 120 50
2.51983 0.06001 25.62022 245 120 50
2.73936 0.06298 25.84077 245 120 50
2.42713 0.05087 25.87535 245 120 50
2.49661 0.12194 25.87204 245 120 50
2.66754 0.13558 25.80539 245 120 50
2.74039 0.05532 25.91639 245 120 50
2.48968 0.15538 25.79676 245 120 50
2.51985 0.11813 25.87924 245 120 50
2.64185 0.08470 25.82910 245 120 50
2.45451 0.06303 25.79380 245 120 50
2.58597 0.09024 25.69133 245 120 50
2.48011 0.12064 25.81652 245 120 50
2.68613 0.05929 25.83751 245 120 50
2.68666 0.10865 25.93594 245 120 50
2.66175 0.16000 25.85474 245 120 50
2.56383 0.05419 25.99317 245 120 50
2.51924 0.13671 25.71574 245 120 50
2.56159 0.22552 25.75501 245 120 50
2.43147 0.05679 25.88430 245 120 50
2.71182 0.07193 25.67500 245 120 50
2.43922 0.05289 25.65666 245 120 50
2.70276 0.06458 25.64739 245 120 50
2.44465 0.10989 25.77704 245 120 50
2.71873 0.06024 25.66696 245 120 50
2.44601 0.08058 25.73315 245 120 50
2.65645 0.12580 28.47930 245 120 50
2.74084 0.05808 28.55422 245 120 50
2.77852 0.05181 28.31705 245 120 50
2.44218 0.06396 28.37707 245 120 50
2.60658 0.05491 28.60653 245 120 50
2.68791 0.08851 28.34164 245 120 50
2.41989 0.05638 28.37012 245 120 50
2.70134 0.13294 28.35579 245 120 50
2.61892 0.08605 28.50967 245 120 50
2.70595 0.07717 28.47538 245 120 50
2.58324 0.13412 28.51053 245 120 50
2.60781 0.11367 28.52665 245 120 50
2.67747 0.13169 28.32375 245 120 50
2.55233 0.06720 28.23466 245 120 50
2.73639 0.06811 28.37872 245 120 50
2.49399 0.05726 28.56854 245 120 50
2.65167 0.07274 28.42120 245 120 50
2.45151 0.05198 28.49499 245 120 50
2.45326 0.08360 28.45336 245 120 50
2.62130 0.06046 28.43927 245 120 50
2.45858 0.05748 28.49411 245 120 50
2.73730 0.08625 28.40780 245 120 50
2.51100 0.09708 28.51904 245 120 50
2.65536 0.10615 28.31413 245 120 50
2.57210 0.16224 28.40619 245 120 50
2.60927 0.20177 28.38723 245 120 50
2.44980 0.09075 28.37355 245 120 50
2.60555 0.18216 28.32540 245 120 50
2.43952 0.05469 28.54333 245 120 50
2.45006 0.10262 28.44598 245 120 50
2.64409 0.16340 28.45916 245 120 50
2.42024 0.06849 28.35971 245 120 50
2.54466 0.09964 28.52241 245 120 50
2.55125 0.12597 28.33670 245 120 50
2.62248 0.11500 28.44437 245 120 50
2.57722 0.13684 28.30090 245 120 50
2.67873 0.13169 28.50634 245 120 50
2.65001 0.21837 28.37605 245 120 50
2.65944 0.09401 28.43020 245 120 50
2.68323 0.08899 28.53230 245 120 50
2.72395 0.05332 28.47330 245 120 50
2.65378 0.05347 28.24353 245 120 50
2.52141 0.08393 28.25708 245 120 50
2.64523 0.07945 28.32252 245 120 50
2.66427 0.17042 28.37997 245 120 50
2.54263 0.08488 28.51487 245 120 50
2.63145 0.23234 28.37326 245 120 50
2.50953 0.11039 28.36206 245 120 50
2.68463 0.09613 28.37827 245 120 50
2.53206 0.16411 28.44445 245 120 50
2.41638 0.05369 28.46983 245 120 50
2.75760 0.07433 28.31471 245 120 50
2.62894 0.12556 28.28159 245 120 50
2.64848 0.16384 28.31381 245 120 50
2.60184 0.06009 28.41009 245 120 50
2.70610 0.07274 28.33128 245 120 50
2.59087 0.06816 28.32681 245 120 50
2.65190 0.13417 28.41380 245 120 50
2.54939 0.19291 28.38420 245 120 50
2.73474 0.10459 28.48984 245 120 50
2.66686 0.13995 30.89740 245 120 50
2.54598 0.11363 30.95783 245 120 50
2.63369 0.06124 31.16101 245 120 50
2.55307 0.14120 30.88504 245 120 50
2.56437 0.14079 30.93412 245 120 50
2.66900 0.05475 30.84047 245 120 50
2.76624 0.05549 30.89401 245 120 50
2.77703 0.05341 31.08920 245 120 50
2.55549 0.06709 31.01101 245 120 50
2.53819 0.13883 31.00632 245 120 50
2.51893 0.07662 30.83635 245 120 50
2.53507 0.10204 30.97535 245 120 50
2.77157 0.05037 30.99465 245 120 50
2.72888 0.08679 31.01269 245 120 50
2.80858 0.05042 31.00497 245 120 50
2.68843 0.05599 31.18618 245 120 50
2.57935 0.05518 30.91263 245 120 50
2.55409 0.08741 30.83508 245 120 50
2.70285 0.11754 31.05176 245 120 50
2.49674 0.05021 31.12936 245 120 50
2.45493 0.06440 31.07016 245 120 50
2.46843 0.06765 31.02164 245 120 50
2.53841 0.07752 30.99037 245 120 50
2.66356 0.11892 30.96194 245 120 50
2.74980 0.09584 30.98890 245 120 50
2.63014 0.20693 30.98435 245 120 50
2.57657 0.07377 31.18005 245 120 50
2.53725 0.05950 30.84171 245 120 50
2.52060 0.06738 31.13517 245 120 50
2.45422 0.07451 30.96118 245 120 50
2.72630 0.13206 31.00197 245 120 50
2.65803 0.17043 31.04665 245 120 50
2.59191 0.12317 30.96240 245 120 50
2.62311 0.10269 30.90746 245 120 50
2.58874 0.27079 31.01700 245 120 50
2.70517 0.14077 30.93498 245 120 50
2.79525 0.05258 31.06189 245 120 50
2.75228 0.07085 31.09093 245 120 50
2.59522 0.10668 30.84445 245 120 50
2.55383 0.12800 30.97724 245 120 50
2.70592 0.05524 31.07890 245 120 50
2.68992 0.07060 31.13265 245 120 50
2.67374 0.05174 30.82364 245 120 50
2.49923 0.05586 30.85032 245 120 50
2.75780 0.07867 31.07388 245 120 50
2.61998 0.06900 30.80683 245 120 50
2.56108 0.05061 30.83707 245 120 50
2.52569 0.10765 30.92072 245 120 50
2.64950 0.09356 30.86792 245 120 50
2.66880 0.20137 31.00709 245 120 50
2.47621 0.10929 31.02575 245 120 50
2.44377 0.05350 30.88971 245 120 50
2.65651 0.11926 30.89753 245 120 50
2.53835 0.21558 31.00519 245 120 50
2.71633 0.07921 30.97712 245 120 50
2.56200 0.17379 31.04247 245 120 50
2.47376 0.07101 31.07392 245 120 50
2.72015 0.11519 31.00018 245 120 50
2.68272 0.07184 30.83788 245 120 50
2.41342 0.05824 30.97596 245 120 50
2.57332 0.19380 33.60628 245 120 50
2.48494 0.13526 33.56083 245 120 50
2.47565 0.05762 33.72742 245 120 50
2.48821 0.08463 33.57566 245 120 50
2.49925 0.09993 33.57336 245 120 50
2.67612 0.14545 33.51343 245 120 50
2.68610 0.07221 33.71144 245 120 50
2.64552 0.05570 33.46293 245 120 50
2.65410 0.07509 33.47678 245 120 50
2.71152 0.07891 33.59348 245 120 50
2.62921 0.14335 33.51719 245 120 50
2.75183 0.06511 33.65915 245 120 50
2.48986 0.13152 33.55586 245 120 50
2.71355 0.05052 33.41865 245 120 50
2.50172 0.05920 33.58953 245 120 50
2.51026 0.19786 33.60446 245 120 50
2.53702 0.06932 33.60939 245 120 50
2.64989 0.07011 33.44003 245 120 50
2.68266 0.07497 33.45070 245 120 50
2.66016 0.12255 33.72171 245 120 50
2.50487 0.08397 33.64964 245 120 50
2.47402 0.09784 33.70650 245 120 50
2.49156 0.08481 33.48061 245 120 50
2.51948 0.09175 33.47520 245 120 50
2.74125 0.11598 33.60999 245 120 50
2.51999 0.05304 33.76840 245 120 50
2.46107 0.07372 33.53150 245 120 50
2.60477 0.05335 33.55395 245 120 50
2.53090 0.13488 33.47527 245 120 50
2.52176 0.07433 33.49322 245 120 50
2.66401 0.07963 33.45053 245 120 50
2.51324 0.11158 33.56248 245 120 50
2.52166 0.09403 33.52545 245 120 50
2.61625 0.06428 33.46163 245 120 50
2.55999 0.07035 33.65828 245 120 50
2.65693 0.11049 33.73947 245 120 50
2.70806 0.06904 33.48608 245 120 50
2.53688 0.08952 33.73954 245 120 50
2.64256 0.17107 33.63217 245 120 50
2.53761 0.05000 33.78575 245 120 50
2.55296 0.14918 33.64104 245 120 50
2.45238 0.10164 33.66597 245 120 50
2.71642 0.05717 33.69774 245 120 50
2.74074 0.07846 33.62051 245 120 50
2.58574 0.05807 33.41020 245 120 50
2.69300 0.05968 33.62616 245 120 50
2.63790 0.24642 33.63755 245 120 50
2.70791 0.08745 33.48607 245 120 50
2.45299 0.05087 33.57423 245 120 50
2.73734 0.06134 33.48530 245 120 50
2.49795 0.14015 33.61353 245 120 50
2.57184 0.06794 33.65598 245 120 50
2.58940 0.12243 33.58633 245 120 50
2.50075 0.05976 33.46131 245 120 50
2.45390 0.06499 33.68836 245 120 50
2.50492 0.05635 33.67386 245 120 50
2.44891 0.07251 33.59060 245 120 50
2.72682 0.05480 33.68083 245 120 50
2.64425 0.11288 33.50712 245 120 50
2.59262 0.05070 33.50840 245 120 50
2.51936 0.05114 36.00893 245 120 50
2.73723 0.07291 36.09376 245 120 50
2.79080 0.05532 36.25071 245 120 50
2.52045 0.05576 36.01210 245 120 50
2.67275 0.08894 36.06840 245 120 50
2.62558 0.15830 36.13142 245 120 50
2.42229 0.05236 36.11964 245 120 50
2.67063 0.05404 36.34736 245 120 50
