ply
format ascii 1.0
element vertex 1875
property float x
property float y
property float z
end_header
-3.74324 0.01312 6.61559
-10.78843 -0.02591 -8.68469
-9.89447 -0.01039 -0.31809
2.88608 -0.02888 -3.30814
4.62411 0.04414 -9.25779
-5.35573 0.03568 5.76215
4.31457 -0.03964 8.29951
-5.63368 0.00688 6.92125
0.68259 0.01650 8.67202
-1.48784 -0.03957 -8.91173
-10.17526 -0.00448 10.88186
5.18668 0.02799 -9.05541
-2.52959 0.04745 -0.33667
3.78160 0.01299 -10.38640
7.14231 -0.00039 5.89271
-7.06902 -0.01742 6.10260
-4.62271 0.03340 -7.18778
1.99751 -0.04360 -11.02264
8.71532 -0.00510 1.61248
0.54477 -0.04928 -11.16767
-11.76039 0.03875 -10.16452
5.74633 -0.03752 -3.64027
-1.79520 0.03662 0.93392
9.40127 0.00206 7.22361
-7.05296 -0.01079 -5.14633
-4.02583 0.01972 -10.59085
11.27160 -0.02393 11.63716
9.77008 0.00986 -10.95830
9.88633 0.00979 9.93477
-6.71938 -0.04396 -1.01365
-0.28118 0.02695 -8.64279
8.58830 -0.03537 8.61795
-2.91039 0.01183 -9.97435
9.56128 0.02226 7.56879
-5.70987 0.00819 8.07623
-1.26599 -0.00120 -11.05750
-11.11613 0.01073 5.78788
10.40010 -0.03289 1.53166
4.04743 0.01283 0.39240
-11.35724 -0.00799 4.87739
-1.24485 0.01136 5.81587
1.44274 0.04223 6.72190
-10.95519 -0.03917 -7.52515
-7.86699 -0.02337 3.19014
5.62191 0.01353 10.45312
5.81788 0.03989 -1.79962
2.15742 -0.03443 -10.70707
-3.12783 -0.03905 3.96667
2.57930 -0.03192 7.17890
-11.32298 0.01319 -7.53769
1.51922 -0.03560 -8.99455
10.86186 0.03171 -2.71596
0.10577 0.01887 -5.51181
1.59234 -0.01600 3.59770
-6.78197 -0.04410 5.58216
-8.67702 -0.03344 10.13562
-7.55417 0.00036 3.27516
-2.17743 -0.02270 -0.78861
10.50657 0.01275 -8.18864
-3.75131 -0.01606 1.85040
8.23081 0.00421 -6.22107
-5.67789 -0.03157 7.77312
-9.73073 0.03015 3.89581
6.22503 0.04620 4.24426
8.95588 -0.02397 1.88918
0.57265 0.04328 0.80463
1.82886 0.02725 6.49371
3.66364 0.03660 4.40110
4.18179 0.01924 0.42842
7.37797 -0.00656 7.49313
-7.82758 0.04825 -7.75718
1.83664 -0.04830 1.59854
-7.38306 -0.00146 -6.39037
-4.31157 -0.01287 8.33215
2.53829 0.01390 -1.85277
-11.05516 -0.00859 11.74945
3.05561 0.04731 -4.18193
6.16736 -0.03820 7.48433
-10.31346 -0.02027 11.21236
9.13213 0.01650 9.07697
7.28286 0.04065 5.25598
5.59349 -0.04714 -7.36940
-4.75041 0.00328 4.64882
6.29409 -0.02316 -8.50937
-8.36636 -0.00451 -5.26519
9.73917 -0.03450 5.51505
7.37510 -0.03939 -1.41902
-11.91719 -0.02202 -8.16446
0.09193 0.00355 7.25760
-7.03826 0.03686 -11.29905
5.28483 -0.04379 9.08626
5.91738 0.01305 9.58145
6.68527 -0.01211 1.50932
3.27953 0.04784 11.57989
5.34980 -0.00189 -6.70047
10.10027 -0.02942 -4.08194
-6.56644 -0.04941 -10.98459
-9.18864 -0.04477 -10.92775
9.06099 -0.00469 11.80296
10.84009 -0.02260 -1.40533
-0.57592 -0.01469 -10.29533
-8.85478 -0.03327 -9.34147
5.37206 0.03821 -2.90085
-2.45854 0.00571 10.61664
7.00577 0.00631 10.26260
10.67126 0.04360 10.71122
-6.24334 0.02376 -2.69813
6.21552 0.01543 -5.83718
-9.47199 0.04830 -3.81081
4.00278 0.04787 9.73323
-7.57657 -0.04965 7.52242
5.41375 -0.01723 -11.27976
1.10740 -0.03294 4.84977
7.56999 0.03884 -2.76807
-0.84988 -0.02693 11.58444
-4.48193 0.00101 8.94713
4.07244 0.01469 4.69503
2.73684 -0.01038 5.04652
-11.33998 -0.00118 -1.04909
4.15575 0.00821 2.91254
-8.29521 -0.00511 -3.90617
5.48365 0.02237 -8.87055
4.83221 -0.00479 -11.91826
-9.01115 -0.04264 -2.03593
-3.14887 0.02210 8.66480
-7.07320 0.04748 4.27001
-2.74351 0.01557 9.01651
-10.39639 0.00689 -6.57729
7.24150 -0.00587 10.52210
-8.89131 -0.02435 7.17063
-7.17440 -0.00030 -0.73157
9.33011 0.02107 -2.43611
-3.43131 0.01625 11.10948
-6.99747 -0.01214 7.73808
-10.95583 -0.03920 -3.45807
5.52668 0.00270 2.39057
10.88783 0.04079 4.23619
-4.95729 -0.04734 -9.30284
-10.67104 0.04337 -7.01751
6.64468 0.00708 10.49859
-0.04990 -0.01605 -7.70088
3.10898 0.04778 6.45469
-3.64587 0.04724 1.91018
-1.91099 0.01739 -11.23009
-2.96674 0.04024 -11.85510
-4.96693 0.02433 2.07851
-1.03473 0.04898 -2.46864
-9.71275 0.04379 -8.40507
8.24252 0.00220 -7.20421
4.60654 -0.00589 -9.55679
4.11356 -0.02629 1.11624
-8.98615 0.00006 3.06582
-11.50762 -0.03043 7.01505
-7.87872 0.01452 -7.11705
1.32205 -0.04242 -10.92713
5.28919 0.02771 7.41418
-4.37910 0.01048 -10.70900
-9.19892 -0.03911 5.30573
-5.90481 -0.03623 -0.73700
6.81145 0.02107 -8.84043
3.52151 -0.04633 -5.63056
9.98183 -0.00361 -10.30530
9.35876 0.04423 -4.71398
4.73688 0.03461 4.46933
-0.33019 0.01747 1.55861
11.44534 -0.01691 -5.05908
6.97221 -0.00335 8.83280
5.45396 -0.00637 8.76555
-8.86463 -0.00381 -8.74672
-5.18164 0.04111 -8.62198
6.66951 -0.00133 -1.56721
-10.12232 -0.01123 1.75580
-7.74017 -0.00392 7.18694
2.45216 -0.03968 -10.71593
-7.99077 -0.04673 9.84611
11.65589 -0.01755 6.89379
11.47716 0.04742 -8.91733
-11.62316 0.03172 10.26527
0.80474 -0.01195 -7.27005
-2.75186 -0.04249 10.98876
6.95375 -0.04226 -1.89426
-4.56595 0.02875 -1.65231
-6.59265 -0.03652 -8.11342
-9.52915 -0.03804 10.28161
6.66962 -0.02203 7.17850
-7.91021 0.04432 -1.19984
11.83027 0.00282 -5.45589
1.14337 0.00228 -11.41560
11.02733 0.00099 -10.44872
11.68697 -0.00469 10.06577
0.90783 0.02408 10.63552
-3.23313 0.02509 -4.64950
-2.08407 -0.00635 7.13387
1.90300 -0.00917 10.36708
-7.23703 0.01218 -10.39333
-8.36946 0.03032 -2.45074
-2.07002 0.02008 1.01686
1.30887 0.00477 0.47588
6.50680 -0.00961 -0.04071
7.25445 -0.03690 -1.17431
11.77615 0.02891 -11.29197
-1.69955 0.00212 9.59075
2.07457 -0.04062 8.78916
-8.13206 -0.01778 -10.29650
2.53659 -0.02506 8.52747
9.64203 0.04660 6.43917
5.08454 -0.04225 -5.12415
-5.23406 0.04578 -11.91223
5.85924 -0.01402 -5.56537
11.30693 0.01853 0.01276
4.50077 0.01053 -11.64964
-8.59875 -0.03963 11.59217
5.02790 0.03064 -2.37770
-4.55840 0.01841 -10.87564
-9.56361 0.01948 -6.86678
0.34497 0.00285 -9.63080
-2.59131 -0.04201 -11.38808
-1.25091 0.00827 -2.00395
-3.40484 -0.04786 8.87074
5.40392 0.04387 5.22856
9.07400 -0.03816 4.53084
-1.53713 0.04313 -11.49453
10.71193 -0.01916 7.87260
-7.85225 -0.03331 -2.07795
-8.35434 -0.02981 -0.10323
2.23670 0.00370 4.73830
-8.33448 -0.02446 10.53544
-5.98941 -0.03850 3.42690
-10.54130 -0.01494 -8.44707
0.12106 0.02478 5.57072
-9.36048 -0.01613 10.00020
-4.60375 0.01869 6.16614
-9.63697 0.00835 -10.95570
11.32979 -0.03874 -11.06612
-1.63500 -0.03074 -5.81545
6.03331 0.03672 -11.18642
1.54941 -0.03563 7.36592
6.41445 0.03069 3.70020
-0.75390 0.02651 0.11333
-9.47885 0.04041 -8.70920
2.78225 0.02057 4.37053
7.03580 -0.03231 -8.44903
-11.02808 -0.03844 9.43411
-3.36607 0.04857 4.21830
-3.18608 0.04239 -9.36874
-8.59885 0.01871 -4.59565
-7.13859 -0.02540 2.11708
-11.73331 0.00641 3.65051
7.05773 0.03101 6.28095
-2.82882 -0.01096 3.10142
1.95914 -0.01551 6.95929
11.07887 0.00466 -5.00340
0.42311 -0.02712 -2.34602
-5.32409 0.01652 -4.58600
-6.28534 0.02853 11.04085
3.68260 -0.01197 -1.11190
4.35337 0.03976 -4.23806
3.87665 -0.03719 -6.94460
1.46977 0.00581 -9.77287
7.46212 -0.00244 9.21682
8.51689 -0.02394 -2.83455
-4.72524 0.02849 6.38835
-6.88589 0.04128 -5.46435
5.17728 0.02845 7.56004
-2.07440 -0.01215 -10.00858
-6.88326 0.03068 -7.62401
6.69871 0.02569 -0.20690
-8.91382 -0.01660 -1.71583
-2.83274 0.04598 -6.49494
-9.50303 -0.00660 3.28690
10.71990 0.01957 11.56394
-11.05196 0.03764 -4.35948
-3.50774 0.03670 -4.68303
2.46396 0.00448 -0.07816
-2.99622 -0.03233 -3.16748
-0.22882 -0.00370 8.88903
9.05996 -0.00513 6.93349
11.03996 0.03005 6.85626
-9.25348 -0.03170 7.53838
2.92885 0.02336 -5.83764
1.18213 0.01217 -6.05665
6.51648 -0.02700 10.03723
-9.28238 0.04602 -3.39486
6.95057 -0.00120 10.59478
7.34032 0.04977 -5.11512
5.62610 0.00888 -8.30964
0.56272 0.03433 -8.29639
-2.51594 0.02297 9.11604
-10.13576 0.04929 -11.41673
9.10212 -0.04038 10.15165
-9.15401 -0.02608 4.75451
6.74105 0.00312 6.94113
-1.84986 0.00969 0.47620
0.06626 0.04965 -6.56941
-9.10560 -0.01149 5.08221
-6.42396 -0.01873 3.61232
-11.30629 0.00905 10.10395
10.07997 0.01578 10.24117
-4.01727 -0.03009 0.89293
-8.28883 -0.03338 6.85467
-2.27793 0.04871 -5.22392
-7.79722 -0.04578 10.09747
2.61916 -0.01084 -7.39520
-1.36305 -0.00041 -6.20715
-10.70460 0.00584 0.40182
9.28298 -0.00471 2.62926
2.43835 -0.00926 8.95143
-2.54129 -0.02481 0.14947
6.02486 0.03620 -2.20897
-2.13983 0.01765 7.64732
3.23780 0.00443 -8.43263
-6.70115 -0.04025 -0.82236
5.59992 0.04205 -3.35517
-10.04784 0.01844 8.72456
1.12642 0.01542 -1.68705
1.97193 -0.03423 7.85324
-8.63055 -0.02217 5.47405
-4.35854 0.01554 6.83727
6.85669 0.00239 8.69587
-9.07093 -0.03369 5.28242
-10.90787 -0.03086 3.07515
-8.34025 -0.02118 8.73451
11.84241 0.00577 -9.00409
4.59609 -0.01006 10.68176
-4.87098 -0.02414 3.82830
-8.50511 -0.03430 -11.50791
10.70887 0.02156 4.47837
-5.42126 0.03491 3.30724
-2.17049 0.02114 7.40516
0.35987 0.04323 -9.59062
-5.00165 -0.03362 -6.65252
-7.98696 -0.04492 -8.15820
-8.00212 -0.02444 11.61700
0.31220 0.01825 1.38339
-2.31936 -0.01824 1.54469
-11.84303 -0.01941 0.24937
2.52757 -0.00739 -7.61385
1.65088 0.03903 -11.38300
-3.70016 0.00986 -0.77900
-3.97019 -0.01453 3.49282
-3.08092 -0.00169 4.02921
-6.27036 0.01014 10.26600
-8.89411 0.04618 -7.72937
11.06864 0.03538 10.41393
3.30605 0.03176 10.16817
5.68622 0.01090 4.53047
2.34721 0.04395 11.11856
-2.95936 0.02603 6.49125
-2.57593 -0.04772 4.17906
11.19894 0.04170 0.77366
6.95162 -0.04833 7.62337
9.07801 -0.04037 -0.60210
-2.27593 0.04779 -9.65022
4.99278 0.02178 -9.37313
2.29809 -0.04319 2.59048
2.70069 -0.02478 4.21872
-5.97339 -0.01401 -4.79260
7.77847 0.01637 -11.19012
1.16071 -0.00868 0.73203
-7.13535 0.04353 11.37628
8.04751 0.04015 -8.22774
7.07713 -0.01185 -1.01554
-2.03375 -0.01259 2.48445
0.06649 -0.00972 -2.99970
10.27847 -0.03937 -3.16864
0.14297 0.04873 3.19318
-7.06957 0.03226 6.21438
0.10322 -0.02811 -7.85614
11.92487 -0.01582 8.14639
10.91982 0.03066 0.92351
-5.47917 -0.04458 5.75653
6.76548 -0.01691 -0.95196
-4.07242 -0.02201 1.57103
10.59207 0.04818 -1.56236
-6.45622 0.00933 1.36395
-4.08793 -0.04230 -8.31863
3.02388 -0.04933 -4.71520
8.78829 0.00423 7.96191
-4.79475 -0.04323 -4.31663
8.93674 0.03770 -1.46730
-5.08240 -0.02178 -6.81184
10.44318 0.02432 9.94576
2.58281 -0.00095 1.78792
-4.03074 -0.03526 0.31640
-8.81809 -0.02253 -3.05884
-2.81389 -0.02116 3.23142
-8.02637 0.03062 -11.84457
-8.32937 0.00020 5.01572
4.10735 -0.00913 10.88333
-11.57183 -0.03718 -7.51684
-6.83877 -0.03197 -7.58098
6.65370 -0.00825 -1.60843
-9.84009 -0.04651 2.07546
-3.84037 -0.01226 5.38301
-4.47172 -0.00375 1.58230
1.81087 0.01715 7.36507
8.88680 0.00353 -7.57268
8.41549 -0.01946 0.74320
-10.13265 -0.04516 -8.01647
11.62371 0.04858 -8.60280
-6.25023 0.01348 -3.91537
-3.22822 -0.00165 11.68378
-1.63887 0.02803 -1.51615
-5.96414 0.01864 -3.34502
-0.14847 0.04702 -3.11352
0.09275 0.01859 -3.73027
4.98250 -0.02065 -10.42995
-5.15511 -0.00634 -3.81733
11.92135 -0.03759 -3.33262
-2.47626 -0.01206 -7.48024
1.81021 -0.03245 -4.73433
0.76004 -0.00588 3.05633
2.95593 -0.02648 -0.54495
-3.62872 -0.01682 3.70627
5.75004 -0.02527 5.44308
1.43607 -0.04299 1.68711
9.41670 0.03502 10.86209
0.30080 -0.03792 8.47226
-7.90018 0.04834 -2.05177
4.87718 -0.03213 -3.80660
-11.13025 -0.01518 -11.95202
-5.81329 0.02588 -8.97947
2.84008 0.03318 -2.97736
3.99138 0.00103 1.58528
-1.55943 -0.04304 4.18268
10.63209 -0.03468 -7.64590
1.67920 -0.00465 6.30301
-7.86990 0.04442 6.48867
8.56368 0.04807 3.39104
-8.58689 -0.03558 11.53824
-1.61394 -0.02800 -10.23905
-8.34675 -0.00516 6.37570
9.36946 -0.04576 8.89821
-7.38383 -0.03787 9.75645
-9.82677 -0.03410 -3.94003
7.73542 0.00823 1.22093
-6.13436 -0.03801 3.21215
-7.62810 0.01414 -6.93556
-0.40075 -0.03112 -1.81002
-11.76366 0.04286 8.35115
10.30177 0.02199 11.15363
-1.43883 0.01768 -4.29840
-4.83548 -0.01878 -8.00954
-6.64640 0.03801 -11.58455
9.14993 -0.00214 4.44096
6.52225 -0.04686 -0.54645
3.06508 0.00331 -8.11518
6.75918 -0.02026 -0.08124
-1.34560 -0.02255 -1.02481
-4.84957 -0.03175 -0.60521
0.80299 -0.01439 -11.31269
10.49309 0.00383 -4.91108
-0.71261 0.01898 6.39432
-10.44924 -0.03603 -5.11936
2.86563 0.00828 -2.59042
3.13497 0.02230 -3.84962
-5.24405 0.01599 8.10720
3.05278 0.00832 4.47070
-7.51439 0.04117 8.90299
10.01178 0.02580 7.28241
1.31199 -0.00717 3.99011
3.33608 -0.00342 10.70837
-5.06539 0.01592 -0.70209
-7.91517 -0.03455 5.91774
0.51354 0.01771 -0.84422
6.72046 0.02447 5.83987
-10.41938 -0.02300 1.57254
-6.84731 -0.03311 -11.63689
-7.70943 0.02752 8.12771
-5.02565 -0.00902 -9.57597
-2.96957 0.04728 3.64148
10.00616 -0.01372 7.45624
-6.33403 0.04609 -1.05780
3.91105 0.03248 3.40495
10.04362 -0.02007 11.05015
4.35017 0.00780 -7.07900
3.23995 -0.03203 7.08022
7.66736 -0.01497 4.17849
-4.48528 -0.03559 3.20999
9.45855 0.02945 3.81179
-0.07465 -0.02740 -0.12681
-1.82634 -0.02103 9.76623
-0.06572 0.00045 -4.90207
-7.74914 0.01853 -5.10556
-1.14876 -0.04884 -5.49390
-10.98172 -0.03848 -8.65673
-10.11501 0.01592 1.31882
-6.94340 0.02326 -8.27934
-11.22613 -0.00992 -5.35324
-1.72183 0.00448 8.65002
-0.77855 0.03715 6.67312
3.95329 0.00145 4.83541
-4.15023 0.00288 -6.53661
4.30819 -0.02768 -6.00199
-1.43609 -0.04770 7.59110
1.70457 -0.03192 9.82412
-2.71896 -0.01261 10.52577
3.79156 0.01798 -9.36140
3.39736 0.01210 4.50673
-10.35979 0.03937 11.81297
-7.78772 -0.01594 6.69366
-3.95109 0.03246 5.11906
3.66130 0.00768 -1.40663
-3.80270 0.01964 7.06716
-7.76938 0.01763 3.05414
-3.54231 -0.00371 -9.96577
11.93967 -0.01042 0.76524
3.73741 0.00047 -8.20983
-6.60197 -0.02101 -2.13109
0.66638 0.01451 -8.69563
11.11316 0.03719 11.83663
5.92040 -0.00027 -1.89258
8.97581 -0.00510 -2.31139
4.28666 0.02813 9.40819
3.85703 -0.00605 -8.05743
7.78270 0.02120 -4.55475
9.05579 0.00482 7.27949
-10.36811 0.00873 -4.04225
-10.59659 -0.03119 -8.60238
7.87924 0.04804 -6.17865
11.45546 -0.00677 -3.34215
2.33511 -0.01813 -10.50408
8.50447 -0.01018 -1.68623
-5.20969 0.01984 0.29300
5.25106 0.01960 -0.15945
10.29161 -0.00076 1.86635
-3.15655 -0.03655 -11.93599
4.73012 0.02086 3.04363
4.52099 -0.00387 2.24521
9.86457 -0.03496 1.45202
2.66779 -0.02725 -10.19156
-7.09104 -0.01985 -11.71517
8.33430 -0.01221 -9.37383
7.85237 -0.03582 -3.48634
-6.92441 0.00467 -0.71205
5.78831 -0.01834 -5.86387
-3.29501 0.02775 3.36247
1.56919 0.02174 -0.53036
1.85783 -0.01350 -1.86465
7.85552 -0.01027 2.63633
4.42185 0.03423 -6.79042
8.53740 0.01927 -4.77830
-4.45568 0.00165 -11.26862
8.74885 0.03890 6.44619
5.72684 0.04680 -0.13914
-11.08518 -0.03646 8.31850
-9.50740 0.02119 -8.19726
-0.84614 -0.04508 8.64876
-11.28026 0.02691 1.35875
8.29616 0.03930 -0.98766
-11.90268 -0.02064 1.33706
3.67785 0.04626 -8.43226
8.18485 -0.01174 -9.79942
-3.19586 -0.03775 -4.49420
7.87945 0.00565 -10.90788
11.12531 0.03525 -2.35505
-5.55653 0.00511 -9.66656
7.33775 0.04450 -1.15048
1.43464 -0.03628 -5.07621
0.38005 -0.01696 7.54769
-3.29178 -0.04420 -9.37300
-9.83786 0.01437 3.64506
9.15132 0.04631 -1.90258
8.05286 -0.01519 -11.85509
-5.62369 0.02921 -1.23385
8.16031 0.01479 -8.38499
0.40946 -0.02651 9.38604
11.61759 0.03831 1.32053
4.69898 -0.03045 9.53194
-6.86374 0.02207 3.25779
11.33763 -0.02813 6.18567
8.29652 0.02039 -0.36598
-6.21045 0.00429 -4.70278
-11.81342 -0.03917 -3.04508
3.17429 -0.02234 -9.86979
-0.50899 -0.04443 0.08152
-1.64199 0.01770 6.03037
1.73706 0.01566 -4.46106
0.37920 -0.02316 8.75358
-10.11858 0.04755 1.30114
0.98864 0.04347 4.17010
4.20576 -0.01112 -5.80950
-11.86795 0.03112 5.09564
7.57770 0.03866 9.93802
-1.61500 0.03381 8.49535
-9.06869 0.03346 6.00765
-7.30760 0.01897 -4.49978
-3.14588 -0.04039 -6.33815
0.60554 -0.01200 -6.38125
4.55739 0.03724 2.00220
1.83718 -0.02046 3.48200
-0.92505 -0.03512 11.48977
-7.04314 0.03198 -1.40237
-6.41442 -0.04543 2.34726
8.97949 -0.01343 1.93835
-10.19144 0.00722 1.76263
-9.70132 -0.01464 -10.60245
10.91483 -0.02260 8.53290
-4.54167 0.00925 -3.08799
-4.98374 0.04064 -7.04831
-0.15223 0.00505 10.18985
-10.32934 0.04196 3.29186
4.03313 0.02573 -9.90876
6.36207 0.01013 2.64726
-5.78916 0.00432 0.32570
9.04588 0.00986 9.90217
-9.05602 0.02438 9.42543
-6.16038 -0.02930 0.06034
3.75875 -0.02407 8.92193
-6.51145 -0.02308 3.48935
-5.14045 0.03764 -7.67606
-11.26842 0.04675 7.16108
-10.74947 -0.02610 3.06374
5.32786 -0.03597 3.69400
9.92297 0.00768 7.11266
-8.74846 -0.03663 10.43497
-3.85380 0.01577 -0.68519
-0.54676 -0.00027 -7.05847
1.96847 0.03547 8.85597
8.27085 0.01070 6.41900
-3.54106 -0.00916 -4.72869
8.39749 0.02561 -11.67339
5.81193 -0.00409 -4.09382
-7.14397 -0.03609 -11.61519
11.94928 -0.00754 -8.33259
-3.46316 -0.00904 6.89241
8.07181 0.04282 -11.59414
-2.83117 -0.01443 2.40626
-1.03619 0.01901 -2.67279
-3.50529 -0.02473 8.43125
-3.97356 0.02916 -0.37415
0.82844 0.01799 10.07595
5.40616 -0.01567 7.00273
-5.35224 0.00907 3.32749
7.56950 0.01540 -0.39993
7.88015 0.04092 -9.36576
10.16471 0.03181 -2.94036
3.67413 -0.02086 8.00131
11.09897 -0.01940 10.94078
5.46360 0.03196 -0.34364
8.46583 -0.01480 -1.89084
1.24229 0.02466 -4.25659
10.41411 0.02550 8.25310
-7.57364 0.03120 8.43461
-2.93539 -0.00358 -4.56948
2.81392 -0.03969 -2.64907
-0.09983 0.00237 -2.32772
-11.60819 -0.00217 -7.87675
2.13128 0.02893 0.14655
-6.79308 0.04471 7.12781
-7.09546 0.00401 7.84219
9.01561 0.03514 -6.94409
-2.03849 -0.00758 11.06014
3.20101 -0.00719 -10.97303
-1.02705 0.01722 -6.76347
-6.12758 0.02910 -3.10223
-2.23888 -0.02896 1.33857
7.03571 0.01632 -11.73088
-7.30919 0.00801 -0.35713
7.51377 0.04711 0.97094
-6.89003 -0.01381 -9.14025
-10.82650 0.04041 11.81731
11.91348 -0.02086 -3.32893
4.43248 0.04902 10.32521
7.07407 0.04696 -6.25418
-3.61028 0.02450 4.79675
-11.27471 -0.02444 -5.31058
-7.56071 -0.00297 8.85740
-8.51808 -0.01328 -4.08317
10.99915 -0.03956 -1.90126
-8.14768 -0.00912 -1.30996
10.53405 -0.00705 8.91284
7.70498 0.04358 5.40286
-8.71023 -0.04407 -6.40546
10.92951 0.03759 7.67176
-11.17045 0.01968 -4.94653
1.94400 0.04103 -9.61589
4.25111 0.00233 11.99006
-8.42672 0.00080 -5.24491
-8.80884 -0.02703 0.59083
1.83418 0.04584 10.24887
-11.25299 -0.04189 -3.09233
-0.37827 0.01592 1.77433
8.35760 -0.02371 -1.68158
-2.98117 0.04650 -5.18995
0.82790 -0.01345 9.86943
3.48951 0.04527 -2.51475
-10.18360 -0.02891 -7.52740
-6.39878 -0.01996 -1.62557
1.46978 0.00849 -2.60737
-11.40421 0.04523 -6.62052
4.85920 -0.04790 -2.30671
-11.96088 0.01422 4.64109
4.67450 -0.04939 2.76528
4.62347 0.01960 -7.86775
-3.95274 0.03117 2.41614
8.62570 0.03362 -3.65708
0.69640 -0.00784 9.45606
-10.67742 -0.00649 -8.27512
5.77683 -0.00901 -5.41203
10.65646 -0.00742 5.14322
-5.00743 -0.03216 9.46860
4.62952 -0.02518 -3.66523
-7.66108 -0.01263 5.00012
-6.22698 -0.00151 -9.31026
6.30848 0.04375 -9.67703
-10.68127 -0.00004 -9.57515
-3.38249 -0.01388 -9.89049
-4.73241 0.00589 5.77561
-0.31851 -0.00861 -6.99589
10.28398 -0.01677 1.17569
-10.37792 0.03250 -7.09788
3.77125 -0.02907 -7.28013
3.96844 0.02141 5.14304
2.64875 -0.03171 4.53791
8.76192 0.00865 -11.48362
7.72216 0.00118 -10.15272
-7.86203 -0.00532 -11.68517
-8.28757 -0.01677 1.41605
-11.74273 -0.02815 11.85693
-7.23441 0.02444 -1.48829
-1.68925 0.03582 -0.15235
-5.67457 0.02181 -0.92459
-3.64108 0.00979 -5.30721
-0.28065 0.04007 6.04737
2.52337 0.04894 6.89599
-8.37666 0.02633 3.52619
-11.92572 -0.04170 -0.00870
2.83653 0.00075 9.99872
11.57168 0.01771 9.04848
-10.41631 -0.02033 -10.62416
-9.10915 0.00863 11.47378
-4.13541 0.00796 4.06550
-9.85508 -0.01640 -0.32784
7.14520 -0.02103 1.60234
0.23854 0.01409 7.50778
10.37405 0.03836 -6.90716
5.08324 0.02122 5.96829
-7.60662 -0.03656 -8.23232
-5.93023 -0.00778 -3.27366
-10.60926 0.00268 2.32198
5.97172 0.00156 10.72068
5.80561 -0.03052 -1.53928
1.09057 0.01856 2.30793
-9.56438 0.04326 -8.09208
3.77567 0.01819 8.56981
6.10856 -0.03912 11.31326
-2.99398 -0.03148 5.51640
-4.79303 0.03652 -6.08604
8.30346 0.03868 9.64788
4.44835 0.01373 7.52479
10.79938 -0.00806 3.51013
-6.87233 -0.00099 2.02307
4.22504 -0.01501 -10.20327
-2.05548 -0.02707 -2.53022
-2.59226 -0.01148 -4.86802
-3.74830 0.03959 -4.05830
-0.01123 -0.01049 10.18950
-1.08556 0.03388 -9.32278
-9.91324 -0.01125 -5.11067
-8.00694 -0.01867 4.20720
-9.72872 0.04272 -5.99506
6.98697 0.04073 -7.29948
10.34092 -0.04282 -1.30366
10.82783 0.04094 1.56282
8.87424 -0.03217 8.21794
-3.15491 0.04891 -10.83534
-5.15304 0.03008 3.02337
-7.26840 -0.03533 -1.11736
-1.17066 -0.02491 -7.68634
3.15236 0.01895 1.55244
9.00230 0.04802 6.22337
-6.15767 0.04829 -5.70046
8.78085 0.02854 1.38917
-3.70169 0.04968 5.81926
4.77283 -0.03720 10.89427
-6.10056 -0.03118 6.84699
8.83052 0.01933 11.57405
3.16855 0.01203 -1.16574
6.28218 -0.01957 10.06847
-7.06192 0.02296 7.49191
-6.19275 0.02414 2.04992
11.41005 0.03293 10.59979
2.08576 0.03153 10.83666
8.30167 0.01564 -6.26751
7.59044 0.02758 8.68469
-10.99616 0.00069 2.98261
2.70352 0.00072 9.38263
6.57383 -0.04253 -2.63343
-2.79125 0.03915 5.70596
5.17323 -0.01530 11.74143
2.98195 -0.03843 -0.49974
7.49560 -0.04655 -7.91828
11.05608 -0.01552 -3.42771
-5.54741 -0.00506 -10.92492
-6.46916 -0.02216 -5.24820
0.18069 0.03906 3.91694
-11.29833 0.01861 -8.03941
3.80385 -0.04691 -0.25676
-1.39304 -0.04072 3.04439
-3.46329 -0.00743 8.00523
-0.07182 0.01913 8.33396
9.67319 0.00679 -10.53434
-4.04613 0.04992 -4.54705
4.75887 0.02179 -1.93678
3.15896 0.01102 -8.48774
11.29767 -0.00388 -10.38645
-7.49662 0.01342 -2.89874
-11.37893 0.00343 1.31415
-8.67630 0.04151 -9.34854
-5.84709 0.04452 0.63259
-1.73492 0.01589 5.98309
5.10726 -0.03925 6.24155
5.33230 -0.00478 -2.91512
-11.60089 -0.03049 8.26030
1.72545 0.00929 3.03316
-3.82706 0.01374 -11.90027
-1.26732 -0.01133 -2.14700
-0.03297 -0.00753 3.21441
-2.03548 -0.00886 11.43850
-3.59841 0.03588 -3.20891
-9.08461 0.04584 -10.55923
-7.45126 -0.00774 -3.23673
0.46074 -0.00043 -1.46334
-10.19579 0.01331 -1.32123
4.73355 0.04233 -5.36244
8.03251 0.03962 -7.84677
6.68906 0.01121 8.68289
-0.83128 -0.03567 -4.52469
11.49269 0.00639 7.64522
-10.51848 0.02223 -5.75989
-9.66024 -0.02549 -10.25327
-8.64256 -0.00321 7.49842
-10.14107 -0.02580 3.32758
5.73427 -0.01647 1.61325
-4.54615 -0.00343 4.46433
-4.52514 -0.00388 6.09260
-4.60500 0.02318 -0.39246
-2.62198 0.01995 -1.95040
10.63714 -0.04655 -9.70606
-7.42892 -0.03579 9.85273
-7.78961 0.02411 8.70444
5.20293 0.02668 11.05149
6.17490 -0.03452 -3.25927
3.52417 -0.00504 -1.99591
-9.02458 -0.04629 -10.54089
-0.04467 0.04365 2.41099
5.38836 0.01522 4.15677
-5.82341 -0.03261 1.81239
5.78050 -0.00845 -7.20840
-10.65542 -0.03695 5.03902
8.71978 -0.01310 -3.17072
5.30469 -0.01215 -10.89958
-4.22258 0.04627 6.80465
-3.66176 -0.00804 -6.16597
-4.09616 0.02200 -1.08030
-7.39885 -0.03693 -2.93769
-9.07558 -0.00167 -7.01247
9.42130 0.01531 -4.90303
2.56658 -0.02085 -6.73220
6.27346 0.02312 7.29725
0.92941 -0.00887 -5.04068
-0.52414 -0.03252 -3.62516
-6.36406 -0.02797 5.35282
-10.54761 -0.01388 6.47756
9.57412 0.00803 -0.45842
1.61311 -0.04658 5.77132
9.35001 -0.02755 9.80211
-0.25019 0.02454 -11.40547
6.79323 -0.00862 11.58082
-5.00747 -0.04286 8.10299
8.46815 0.00430 -0.35097
-8.18020 -0.02883 5.35202
-8.84702 0.03909 2.70870
4.97845 -0.02711 0.05223
7.84905 0.00496 0.22427
10.72937 0.04794 -5.53720
0.41844 -0.04040 11.11424
-2.65835 0.03724 0.48771
7.75454 -0.03298 -11.45097
-10.79634 0.00555 0.54885
2.99385 -0.00390 -11.18175
9.42102 -0.04275 9.76480
-9.08597 -0.02080 7.39309
10.60329 0.00889 7.63061
-8.52718 0.04802 -11.88034
-4.34343 0.02183 -6.99914
-1.34583 -0.01713 3.93401
7.27542 0.01826 -5.16731
2.99864 -0.04637 2.38131
-4.37747 0.03965 7.05984
-3.07130 -0.01636 7.28383
1.47738 -0.01861 -5.56438
7.35767 -0.04285 -2.00271
7.15292 0.04958 -4.89909
-8.30683 -0.04495 -8.24903
3.84339 0.04482 6.01236
-10.22124 0.03917 -9.20245
-6.60052 0.01400 -10.56848
-5.91946 -0.04252 -0.82259
9.51403 -0.03870 1.32155
-2.66618 0.02406 10.06188
-3.69594 -0.01232 3.26020
-7.19620 -0.03377 1.09000
-3.45065 0.02906 4.00559
0.30806 0.01111 -11.56086
2.61802 0.01499 10.46588
7.81587 -0.02805 3.13899
0.03282 0.02012 11.21956
7.39272 0.03411 2.35910
1.27045 -0.03317 -2.11326
5.51898 -0.00461 -1.57136
6.17735 0.01290 -9.55783
-7.80034 -0.02184 -5.05901
9.42994 -0.01785 2.16200
1.07951 0.03541 7.20447
6.40449 -0.00930 2.29350
-11.62029 -0.03942 -0.23154
1.05019 -0.00770 -4.72835
-4.12901 -0.03313 5.91667
-2.80145 -0.04595 7.02257
11.32769 -0.01487 3.84803
-4.03942 -0.02243 7.45536
-2.54242 0.02357 8.65785
9.52401 -0.02254 10.17173
-2.94452 -0.01326 10.10093
7.76452 -0.02101 -7.37892
-0.98769 0.04482 -11.02073
-6.35861 -0.02952 -8.01534
-6.50037 -0.03944 6.50215
2.37849 -0.03774 6.22679
7.34900 -0.02134 -5.62961
2.24313 0.04820 -7.03403
-7.02092 -0.00494 -5.11256
-4.00358 0.04596 5.99102
5.94615 -0.02950 5.20320
11.29844 -0.00710 -6.12974
-9.11383 -0.02402 -10.44946
-5.11221 0.01511 3.57101
2.45381 0.01074 2.31380
11.28631 0.02743 -9.29629
4.19797 0.03651 7.03556
5.26517 -0.02329 -2.31448
6.09206 -0.01660 -11.65589
-9.01113 -0.04549 -0.48823
3.75080 -0.04084 1.40996
-5.64389 0.01606 -5.62848
-2.92065 -0.04750 2.05326
-1.95507 0.02219 -10.77235
-0.72604 -0.02450 -4.71818
-6.01002 0.00984 -3.67495
-5.87787 -0.01165 -6.28540
-9.76784 0.03539 6.88660
-7.40577 -0.01529 8.34496
6.97109 -0.02778 6.59410
2.05389 -0.03776 -1.03695
6.01111 -0.04695 -10.47645
4.08363 -0.01325 -7.63603
-11.50429 0.03799 -0.92472
-11.98304 0.03803 -11.01046
3.11653 -0.03977 4.01083
-10.52687 0.01887 4.84077
0.89733 0.02965 -10.04155
10.80830 -0.01169 -10.93589
-3.00249 -0.04341 -3.19237
-3.25364 -0.04145 -4.22435
-0.43547 0.04903 -8.57351
-9.60272 0.04392 -8.93615
8.96498 -0.02494 -6.98189
11.89702 -0.02283 -4.16573
2.81642 -0.01324 -1.99023
3.55239 0.01935 -0.42434
-7.67386 0.01346 2.18673
10.92877 -0.00191 -5.44472
-2.27758 0.00846 1.27052
-9.50424 0.00215 3.88977
-6.21064 -0.02450 -1.13358
-11.73281 0.01853 -6.06565
5.39964 -0.01997 -6.07079
-3.24652 0.00512 4.45114
4.66937 0.04285 -3.17725
-0.06291 -0.03935 8.19641
-8.99492 -0.04373 -8.64127
10.10835 -0.04516 -3.13988
9.59982 -0.04238 6.21040
4.97489 0.02704 0.36506
8.81943 -0.01269 -0.11355
5.63618 0.04145 -11.80624
3.53179 -0.03334 5.82456
3.65696 -0.00583 -3.45888
7.05574 -0.01969 -1.01499
11.67110 -0.00662 8.08895
-3.79997 -0.02712 -9.09023
7.82212 0.01693 3.79597
8.15723 -0.02806 1.33551
8.29047 -0.04994 11.71780
0.36796 -0.04930 10.15065
9.64546 0.03320 6.68487
-1.58472 0.03057 9.55284
2.91055 -0.03057 -6.11751
7.44909 -0.02393 8.90268
10.50757 -0.03865 3.66821
10.64704 0.03463 -4.27398
-11.01139 0.00054 11.70301
7.23238 -0.02910 11.87328
-9.77298 0.00893 7.95226
10.64363 -0.02081 -0.50047
-0.53397 -0.03958 4.42513
2.57211 0.00452 5.55018
3.80564 -0.00907 -3.90237
9.29787 -0.03622 -7.00843
9.48906 -0.01297 -1.13650
-1.80466 0.01407 7.55302
10.54199 -0.04099 -8.25902
-10.08587 0.00877 -1.97519
3.27120 -0.01533 -2.71232
-3.09973 0.04544 3.96747
0.61317 0.03516 -4.01681
11.12893 0.04120 -8.75960
4.44426 0.04135 -4.61763
-9.71387 -0.03609 -0.13881
-5.90090 0.02833 -1.47362
-2.79222 -0.04725 -2.84788
-1.42096 -0.01504 1.96335
-1.22363 -0.03486 -5.51762
2.36611 0.01643 6.27761
8.53325 -0.04878 5.44428
5.91842 0.04144 -11.00204
7.93608 0.03960 -8.09919
1.55233 0.02700 -7.03402
8.44039 0.00119 -3.77050
11.68409 0.03380 8.11588
-0.99498 -0.01291 10.81079
4.55764 -0.00690 -3.06648
-7.57022 0.04289 6.23216
-1.94061 -0.00320 -9.21005
11.35489 0.01313 10.72685
2.62122 0.04251 1.11578
7.90932 0.03234 -10.06254
-10.43354 0.00303 0.89785
3.82814 0.03461 7.13830
2.27821 0.02148 5.47031
0.78267 -0.03484 4.89017
2.33340 0.01363 -8.23507
6.04099 -0.04670 9.78264
8.12936 0.03503 -5.31114
-6.70744 0.03321 1.71653
3.29848 -0.02610 0.37565
3.13823 -0.03525 -0.00733
5.36433 0.01543 -6.72281
9.21779 -0.00756 -8.46783
7.44965 0.01552 -9.90591
-7.21146 -0.04974 -7.65438
3.04583 -0.02651 -5.68274
8.74403 -0.00217 -3.83065
-7.86429 0.04819 1.93873
-11.87445 -0.04917 -3.26174
-10.24168 -0.02258 -4.54337
-0.41166 -0.04558 -4.17157
-10.63921 0.01526 -4.90812
1.86432 -0.00218 9.61461
-6.70102 -0.00282 -1.50970
-3.13450 -0.00585 -11.38731
8.09730 -0.03039 5.03866
7.28581 0.01304 8.82302
0.48868 -0.04564 -3.40044
5.26202 0.04537 2.82015
0.54509 0.02607 -7.92208
5.09204 -0.04300 2.88871
1.78453 -0.00042 -11.27540
0.84591 0.00372 0.23944
-8.87545 0.02782 -1.43812
-2.56331 0.00617 -2.74986
-5.09255 -0.04890 1.73123
5.18341 0.00051 1.06985
4.81623 0.01440 -2.10766
0.97500 -0.02462 -6.78444
-3.89667 0.03135 5.46115
-0.23957 0.00426 -4.75069
-9.79717 -0.01965 11.13498
-9.36450 0.01758 0.53964
2.50235 0.03070 7.98625
6.51268 -0.03798 1.30649
6.21287 0.00780 -2.07089
-0.69732 -0.02295 4.87659
8.25128 0.04788 -2.92895
0.92210 0.04257 -0.18820
5.97220 -0.00894 -10.99275
10.48665 -0.02018 11.78093
3.47436 0.02640 6.86784
-11.76993 -0.00825 5.48751
11.97414 0.04886 0.28475
10.64074 0.00431 1.70891
-1.22029 0.00228 5.36746
-5.52430 -0.02395 4.62263
-5.00976 0.01841 -5.04807
-8.65608 0.02502 -7.92834
10.50273 -0.02842 -6.58161
8.87256 -0.00594 -6.78283
-0.51923 -0.04927 4.31622
7.92684 -0.01661 -2.16548
-1.47856 -0.04862 8.65028
8.56209 0.01249 5.59277
-5.96473 -0.00644 -4.81043
-5.50358 0.02560 -1.87124
-7.23406 0.00875 -9.71911
-6.97752 0.04707 -8.18126
-2.78211 -0.02964 0.56656
-5.85100 0.02939 5.33285
10.52794 -0.02447 -10.12556
2.67550 -0.00863 -0.29405
-0.12724 0.00209 2.51776
-1.77696 0.01489 -0.72388
2.00263 0.04963 -2.15877
8.07273 0.02300 3.95181
-9.77920 0.01463 11.13549
-4.56983 0.00788 8.70024
2.53631 0.01693 3.38556
-11.52511 -0.02681 2.38782
-6.51836 -0.03256 -3.91354
-2.11357 0.04393 -7.52551
-4.27320 -0.02100 3.32201
-7.74337 0.03569 -9.06736
8.67492 0.01903 -1.84417
-0.55635 -0.04871 10.28458
-0.85529 -0.04462 4.01425
2.52269 0.00484 -8.94516
-8.29990 0.00545 -1.28286
-9.40625 0.03828 -9.54185
10.05798 -0.04787 -7.59724
5.48456 -0.01494 11.74630
3.03102 -0.01000 -6.22562
9.95858 -0.02133 8.59517
-8.61057 0.01596 -4.75862
-0.40674 -0.03664 -10.38553
-9.33183 0.02092 -5.87138
-1.11065 0.00664 8.69065
-8.98900 -0.03481 4.07599
-4.33488 0.03380 -3.51339
-3.40311 -0.03079 -2.92592
1.35374 0.04719 -3.25496
-7.65306 0.00394 6.94594
-11.71163 0.03993 10.56441
8.25520 0.03200 -6.34121
-7.20197 -0.03022 11.97080
-10.99374 -0.02997 3.79739
-11.32566 -0.00225 -3.85171
4.50221 0.04063 3.03747
-11.74056 -0.04722 1.91495
9.53358 -0.03885 -3.15213
7.45067 -0.02252 6.39942
4.89870 0.02664 6.30382
-3.68065 -0.01787 0.41255
4.98537 -0.00548 8.40963
-8.91987 -0.01608 7.09785
2.46475 0.04858 -11.58402
3.20882 -0.03041 11.93862
1.92978 0.02160 -5.92157
7.33399 -0.01726 -7.00447
-11.18740 -0.01276 7.33597
-5.08097 -0.04520 -4.79016
-11.94464 0.01631 7.71844
4.13133 -0.00581 -11.70927
0.89552 -0.04201 5.76868
10.01219 -0.04087 7.51291
-8.54760 0.03984 -5.01994
6.25587 -0.02070 -11.91599
-6.08712 -0.00236 -1.43548
4.25433 -0.02890 -4.85882
-5.34114 -0.00431 -5.14077
-7.06032 -0.04842 10.27331
-8.57220 0.04494 3.12511
-5.67999 -0.00545 7.62069
2.23369 -0.00417 4.72871
-7.04331 0.01347 3.06013
4.45118 -0.01760 -10.02531
0.61688 0.01880 -3.23293
1.50002 0.00107 -7.50909
7.54061 -0.01714 0.58919
-6.55635 -0.00224 -5.31779
10.36435 -0.01092 2.19011
-0.79420 0.01658 -4.00451
11.68162 -0.03845 -11.10991
0.01405 -0.02301 7.61686
6.83904 -0.04526 8.37207
3.53609 -0.03640 8.70347
0.97035 -0.01669 6.62012
0.90979 0.04900 -1.88180
-10.91185 -0.02446 10.89121
11.80828 0.04515 1.23863
-6.72581 0.00614 -3.84809
3.67660 0.00792 2.20833
5.10910 -0.02265 10.94453
10.24619 0.00891 -3.14744
-7.64236 -0.01321 5.66438
-9.16649 0.04626 -10.95649
-7.86350 0.03618 9.00500
-9.72688 -0.02512 10.75734
-8.25520 0.03818 11.10583
0.89736 0.60768 -0.72774
0.88629 0.59000 -0.82786
0.77187 0.61740 2.11998
-0.89065 0.59010 -0.41720
-0.88253 0.59228 0.47706
0.53121 0.59305 2.11389
-0.91081 0.58575 0.68085
0.44190 0.60310 2.11313
0.88878 0.58267 0.80468
-0.47317 0.61290 -2.10286
0.28968 0.59498 2.10169
0.18808 0.60729 2.10173
-0.12044 0.61052 2.10762
0.38941 0.61303 2.10115
-0.80967 0.59793 -2.08871
-0.43762 0.61422 -2.11472
0.90186 0.60857 -0.84083
0.84076 0.59641 2.11344
0.89712 0.60745 0.69109
-0.88313 0.60197 1.58779
0.28339 0.60753 2.08099
0.91707 0.58598 -2.05179
-0.89689 0.60271 0.43681
-0.90607 0.61694 -1.22860
-0.90114 0.58495 -0.36519
-0.41437 0.58322 2.11861
0.89472 0.61162 -0.47798
-0.44002 0.58955 2.10662
-0.90861 0.59848 -1.54460
-0.73845 0.60874 -2.11270
0.90194 0.58589 -0.31143
-0.88707 0.59212 -1.24934
-0.90191 0.59022 -2.10482
0.67096 0.59440 2.11621
-0.90093 0.58646 -0.96948
-0.91914 0.58280 -0.02115
0.88168 0.59963 -0.87843
-0.89685 0.61816 -1.73132
0.84554 0.58774 -2.11569
0.91223 0.58543 -1.33076
0.63099 0.61106 2.09655
-0.88280 0.59959 0.67697
-0.35648 0.60508 -2.08879
0.12692 0.59947 2.09565
0.38364 0.60113 2.08066
0.25169 0.60911 -2.08911
-0.09268 0.58773 -2.11850
0.29956 0.61190 -2.10779
-0.90704 0.59250 1.23244
0.89663 0.60336 -1.13066
-0.57421 0.59831 -2.08525
-0.88805 0.61911 -1.02813
0.91637 0.59082 -1.84874
0.91425 0.58773 -1.17393
-0.51204 0.58375 2.09149
-0.88781 0.59384 1.17474
0.89603 0.58746 -0.41761
0.23253 0.58764 -2.08489
-0.91718 0.59505 0.63072
0.91195 0.61745 1.98338
-0.73632 0.59241 -2.08569
-0.90901 0.59970 1.93125
0.90323 0.61950 -0.47025
0.74166 0.60320 -2.08985
0.85690 0.58282 2.11800
-0.49817 0.60210 2.08545
-0.51043 0.59666 2.08254
0.88640 0.59451 -1.45076
0.88145 0.60581 -2.05967
0.88586 0.61961 -1.62220
-0.75047 0.61800 2.11444
0.90936 0.58072 -0.53999
-0.01934 0.61515 -2.09954
-0.09936 0.60515 2.11054
0.89696 0.60967 0.95908
0.91353 0.60572 0.91610
0.75604 0.59414 -2.09318
-0.91501 0.58916 1.44349
-0.07381 0.60449 2.08496
-0.91603 0.58640 -0.41305
0.88666 0.61736 -2.08611
0.68129 0.59343 -2.09483
-0.91661 0.59256 0.13463
0.05519 0.60199 2.11734
-0.29806 0.59546 -2.11881
0.90611 0.61838 0.08642
0.89063 0.59818 -0.36115
-0.70688 0.59546 -2.09444
0.06025 0.59432 2.10098
-0.89229 0.59863 -0.37581
-0.80627 0.61779 2.11933
-0.30044 0.61249 -2.08879
-0.91297 0.58520 0.24969
-0.90601 0.59223 1.76644
0.04247 0.60320 -2.11940
-0.24143 0.60740 -2.08351
0.50227 0.59772 2.09450
-0.89565 0.58585 -1.43255
0.88773 0.61895 -2.01467
-0.66148 0.60162 -2.10339
-0.01398 0.58906 2.10385
0.88104 0.61962 0.17502
-0.41265 0.60248 -2.08702
-0.65755 0.60697 2.08678
0.78892 0.58529 2.09924
0.89607 0.58805 1.91410
-0.25257 0.60442 -2.09834
0.90258 0.59142 0.30278
-0.79758 0.59376 -2.08009
0.89597 0.59954 0.56829
-0.13175 0.61428 -2.10884
-0.91025 0.60392 0.27712
-0.47729 0.61320 -2.11346
0.90266 0.60345 -1.21667
-0.79766 0.58628 2.08245
-0.89925 0.58801 -1.40549
0.91467 0.58761 1.24532
0.43679 0.59488 -2.09370
-0.91736 0.61448 2.01244
-0.91563 0.60262 1.98953
0.91641 0.59014 -0.41900
0.84254 0.61461 -2.08409
0.17002 0.58284 -2.08894
0.88839 0.61694 -1.15630
0.33132 0.61819 -2.09821
-0.47618 0.59272 2.09010
-0.48893 0.58760 -2.09089
-0.08130 0.60329 -2.11310
0.79970 0.61359 2.09065
0.88168 0.61387 1.73269
-0.19716 0.58455 -2.08356
-0.89833 0.61229 1.80778
-0.91090 0.59089 -1.99257
-0.04967 0.61937 2.11562
0.15527 0.58022 -2.10625
-0.80362 0.60672 -2.08599
0.88934 0.61403 2.08628
-0.91967 0.58540 -1.96476
0.90445 0.60069 2.01769
0.91886 0.61545 -1.97892
0.23079 0.58876 -2.11547
0.13258 0.58159 2.10928
-0.90854 0.58045 0.29252
0.10059 0.58580 2.11813
0.88229 0.61074 -0.10357
-0.00977 0.60768 -2.08741
-0.23792 0.58911 -2.08502
-0.39752 0.61042 -2.10526
0.31500 0.59029 2.11972
0.23307 0.60391 -2.10560
0.38021 0.60011 -2.09551
0.36871 0.60886 2.08003
-0.51006 0.59979 2.11662
-0.54079 0.59300 2.11733
-0.88358 0.58187 0.75932
0.90553 0.59112 -1.10054
0.88398 0.60205 -1.14209
0.36638 0.60074 -2.09893
0.91512 0.59816 0.01832
0.17299 0.60983 2.09520
-0.91489 0.60755 1.11711
0.90476 0.60936 -0.46314
-0.89347 0.61134 1.01919
0.89655 0.59103 -1.10343
0.88497 0.60005 -0.23238
0.89444 0.59668 1.58463
-0.90751 0.58036 -1.71656
-0.26255 0.61581 -2.11619
0.62400 0.58031 -2.10153
0.88755 0.60366 -1.55456
0.90604 0.61921 -0.18309
0.88356 0.59227 -0.66552
0.79429 0.59365 2.08435
0.39974 0.60714 -2.08773
-0.88353 0.60797 1.11461
0.90433 0.59393 -0.03711
-0.90999 0.61563 -1.12313
-0.39589 0.60740 -2.10385
0.52638 0.60911 2.10443
-0.64436 0.61176 2.09256
-0.88362 0.58695 1.88828
0.90645 0.58743 -0.32594
0.25267 0.60390 2.11116
0.91171 0.60405 -1.77863
0.29329 0.60346 -2.11296
-0.90295 0.59022 -1.16265
-0.27043 0.61878 2.08529
0.29231 0.61164 2.11856
-0.49925 0.61806 -2.11527
0.85134 0.58490 2.11876
0.89131 0.59346 -0.07543
0.91715 0.59397 1.76209
-0.89327 0.59956 -0.82609
0.88421 0.58141 -1.00463
-0.91200 0.59118 -1.74300
0.89085 0.59862 -0.03271
-0.09987 0.61442 -2.10588
-0.65046 0.59452 2.10932
0.14810 0.59317 2.09966
-0.88977 0.61742 -0.89833
0.89478 0.58936 -1.09968
0.42571 0.58919 2.10615
-0.88708 0.59372 -0.39435
-0.91775 0.59133 1.30946
-0.48935 0.58124 2.09706
-0.47096 0.61703 2.10270
0.46619 0.59967 2.10319
-0.17571 0.59716 2.11004
0.30529 0.60987 2.10432
-0.88122 0.60989 1.65041
0.90943 0.60175 0.09006
-0.89472 0.61172 -0.89305
0.22903 0.59932 -2.11720
0.90588 0.59053 -1.30150
0.90389 0.59342 -1.20842
0.89509 0.59808 -0.23049
0.44497 0.60329 2.11809
0.88817 0.59967 -1.07476
0.70286 0.60540 2.10551
-0.91185 0.58068 -1.29304
0.88659 0.61593 0.56707
0.88161 0.59825 -1.36326
-0.14244 0.60192 -2.11577
0.88366 0.61343 -1.25394
-0.88573 0.58887 1.02675
-0.89141 0.61145 1.36754
0.88805 0.58744 0.64930
0.29489 0.59595 2.11175
0.91845 0.59276 0.88049
0.21385 0.61009 2.08206
-0.65012 0.60927 2.10950
0.49744 0.61775 2.11437
0.12206 0.60039 -2.08974
-0.90025 0.60996 -0.60161
0.90918 0.58483 1.00297
-0.78058 0.59350 -2.08645
-0.90263 0.59728 -0.81966
-0.22781 0.59009 2.09007
-0.91648 0.59943 -0.74182
0.88217 0.60384 1.97319
-0.91974 0.59609 -1.81079
0.64095 0.58195 2.10188
-0.00856 0.60703 2.10186
-0.61439 0.60083 -2.10031
0.78837 0.59764 2.10352
0.21695 0.61446 2.08450
0.89489 0.58085 0.29536
-0.09277 0.59626 -2.10370
-0.91528 0.59849 1.92210
-0.90791 0.61706 -1.30095
-0.90378 0.59427 0.72238
-0.85552 0.59575 2.09466
-0.83539 0.59849 2.11080
-0.12645 0.61415 -2.08831
0.11366 0.60656 2.08075
-0.91135 0.61909 -0.96196
0.90735 0.58123 -0.20695
0.56523 0.59766 -2.08500
-0.91119 0.59770 -1.99227
-0.90688 0.58560 -0.41729
0.90161 0.61607 -0.12563
-0.90133 0.58238 -1.39889
0.26912 0.59222 2.08711
-0.02242 0.61909 2.10030
-0.70505 0.60588 2.09119
-0.89273 0.60549 0.40312
-0.85714 0.61344 -2.08909
0.13285 0.58147 2.11258
0.12058 0.58316 -2.11690
0.00332 0.61468 2.09029
0.88354 0.60512 -1.92306
-0.91369 0.58609 -0.46854
-0.90954 0.58699 0.32112
-0.91914 0.58599 1.15317
0.89522 0.61552 -1.17911
-0.89415 0.60315 -1.44402
-0.85026 0.61069 -2.09112
0.90377 0.60744 -2.05025
-0.88990 0.61151 1.65287
-0.60147 0.59079 -2.10516
-0.88260 0.58841 1.82308
0.86929 0.60325 2.10463
-0.67967 0.61249 -2.11223
-0.88244 0.59862 -0.50440
-0.43347 0.59400 -2.09435
-0.89416 0.60878 1.27956
-0.88083 0.58469 2.10127
0.88337 0.58690 0.91681
-0.05077 0.59243 -2.09671
0.88532 0.59907 -0.59428
0.27817 0.60930 -2.11491
0.06883 0.60524 2.09182
-0.45837 0.58154 2.08707
-0.72785 0.61531 2.08667
0.72546 0.61879 2.11049
-0.37069 0.58045 -2.10959
-0.32218 0.58773 2.09920
0.90283 0.60629 -0.75091
-0.88103 0.61366 -0.53750
-0.88235 0.61003 0.10991
-0.90816 0.61026 1.24352
0.88682 0.59426 -1.43368
-0.88587 0.58929 -1.76428
0.90049 0.58545 1.52324
-0.61826 0.60409 2.10214
-0.46486 0.61432 2.11624
-0.59489 0.58861 -2.11003
0.90182 0.60962 -0.06425
-0.91674 0.58858 -0.34479
-0.89259 0.61682 -1.32629
-0.89913 0.58745 0.02280
0.81280 0.59537 -2.09144
-0.19738 0.58377 2.10901
-0.91848 0.58129 0.74518
0.31629 0.59240 -2.08671
0.90217 0.61571 1.71025
-0.88949 0.58789 0.16114
-0.90527 0.60607 1.09653
-0.82378 0.59215 2.09661
-0.88266 0.61183 -1.00127
-0.89618 0.61001 1.41245
0.91427 0.58468 0.28863
-0.07187 0.59496 2.10940
0.75736 0.59632 2.09866
0.78492 0.61628 2.10573
0.20833 0.60036 2.11953
0.91371 0.60467 -0.65809
0.47543 0.59773 2.08342
-0.82748 0.60167 2.08960
-0.78271 0.58723 2.10833
0.63345 0.59069 -2.10983
0.21643 0.58472 2.10604
0.57442 0.58277 2.09371
0.86223 0.59663 -2.08966
0.56625 0.60193 -2.10180
-0.51323 0.58412 -2.09688
0.60269 0.59799 -2.10203
-0.88561 0.58942 -0.83871
-0.90670 0.58214 -1.78640
-0.32035 0.61723 2.11355
0.53715 0.59265 -2.10920
-0.89978 0.60507 1.84587
0.63886 0.59058 -2.08841
0.90394 0.61762 0.61906
0.76056 0.58485 2.08750
-0.87466 0.60035 2.11935
-0.91465 0.58901 0.16503
0.14752 0.59975 -2.08363
-0.11467 0.61392 -2.11048
-0.55094 0.60149 2.10005
-0.90512 0.60636 2.00103
0.03856 0.58587 -2.10009
0.91765 0.58883 1.79289
-0.66428 0.60977 2.08828
-0.90997 0.59917 0.58944
0.88516 0.60878 0.28177
0.89225 0.61648 1.60171
0.78182 0.61022 -2.08621
0.71432 0.59035 -2.08593
0.48681 0.58473 -2.09020
-0.32251 0.60407 2.09583
-0.89248 0.59697 -1.55684
-0.91760 0.61556 1.40241
0.91900 0.58034 1.26477
-0.38625 0.58170 2.10299
-0.14031 0.61073 -2.11317
-0.91492 0.59785 -0.85081
0.88216 0.58914 -0.20609
0.59059 0.60162 2.10914
0.89748 0.60219 1.52310
-0.85483 0.58216 -2.11113
-0.19528 0.61904 -2.11405
-0.88471 0.61493 -2.02765
0.24639 0.61051 2.08532
-0.69329 0.59080 2.08874
-0.37898 0.58895 -2.11284
-0.65991 0.61761 2.09623
0.70757 0.61177 -2.11789
0.88739 0.61931 0.56214
-0.28224 0.58098 2.10043
-0.89154 0.59665 0.01975
-0.34049 0.60458 -2.09437
-0.89200 0.58263 -1.64010
-0.90136 0.60268 -1.47206
-0.90653 0.58606 -0.81651
-0.91689 0.60415 0.89505
0.53532 0.59003 -2.09471
0.04608 0.59009 2.08972
0.46793 0.59800 -2.09137
0.90047 0.60432 -0.58488
-0.87874 0.58208 2.10361
-0.18380 0.58952 -2.11326
0.31058 0.61872 -2.09156
0.58047 0.59690 2.11976
-0.90505 0.59102 1.35127
0.26303 0.60155 2.09425
-0.22170 0.59757 -2.11799
-0.90258 0.60158 -1.84212
-0.88727 0.60017 -0.99793
0.75205 0.61260 -2.08929
0.01368 1.08399 0.62187
-0.17998 1.04005 -0.79649
-0.14538 1.10037 -0.12189
-0.15466 1.15470 0.56036
-0.43591 1.03077 -0.24973
-0.42173 1.28048 -0.18736
0.44917 1.22620 -0.77860
0.24707 1.06975 0.62525
-0.43140 1.20249 0.22222
-0.38436 1.21144 -0.84617
-0.12652 1.24121 0.65890
0.30329 1.10199 -0.58350
-0.44598 1.02791 -0.60302
0.06204 1.19669 0.87845
-0.41156 1.27536 0.10697
-0.57670 1.14139 -0.60292
-0.14320 1.26748 0.18192
-0.46887 1.08025 -0.64760
0.58794 1.27665 -0.59751
-0.53239 1.02489 0.25205
0.31607 1.04036 0.21344
0.07150 1.20911 -0.37308
0.32591 1.12194 0.52850
0.66837 1.09500 0.23513
-0.50310 1.21888 -0.60026
-0.31112 1.14765 0.05187
0.68573 1.07453 -0.81466
-0.48626 1.06770 0.13447
0.39159 1.15423 0.54302
-0.05342 1.06324 -0.12735
0.64261 1.05732 -0.62119
0.33771 1.10252 0.58635
0.14767 1.10183 0.77741
0.38327 1.23501 0.23920
-0.48745 1.27406 0.27470
-0.28973 1.16260 -0.75502
-0.20358 1.26437 -0.32703
0.05506 1.10410 -0.51017
-0.63929 1.19722 0.07052
-0.43538 1.11168 0.61649
0.23295 1.27713 -0.43773
-0.57905 1.10892 -0.38167
0.22211 1.28673 -0.15786
-0.19906 1.15766 -0.48831
0.16017 1.06717 0.10408
0.51756 1.19991 -0.86844
-0.13506 1.05623 0.13719
-0.58115 1.08368 -0.01856
-0.34547 1.26982 0.20497
-0.46649 1.09069 0.76577
0.09870 1.05355 0.44502
-0.41098 1.22779 0.57155
0.35863 1.06942 0.46667
-0.57369 1.09286 0.10486
-0.52858 1.16386 0.83480
-0.30682 1.11645 -0.51634
-0.48406 1.05737 0.07477
-0.25172 1.11627 -0.50295
0.08684 1.00615 -0.53849
-0.54897 1.21919 0.26093
0.23751 1.08289 0.09405
-0.58534 1.06997 -0.44413
-0.12773 1.04943 0.06022
0.52690 1.06786 0.20803
-0.60908 1.02066 -0.52747
0.18473 1.03389 0.32314
-0.69458 1.29175 0.88444
0.38130 1.02074 0.62451
-0.18450 1.09254 -0.88979
-0.16579 1.05744 0.57041
-0.14863 1.22862 -0.17614
-0.19450 1.16778 -0.53021
0.16557 1.09456 0.20972
-0.45564 1.06914 0.11536
-0.31448 1.17609 0.05745
0.11767 1.10477 0.83590
0.10303 1.16715 0.10376
-0.44624 1.12918 0.06817
-0.18632 1.23893 -0.32235
-0.02105 1.07379 -0.37657
-0.30275 1.22990 -0.40117
-0.66757 1.14864 -0.40797
0.47290 1.18658 0.63159
-0.19343 1.21433 0.42979
-0.37494 1.26561 0.86312
-0.67125 1.05427 0.41615
-0.10778 1.12881 0.32263
-0.23285 1.12993 0.33801
0.24077 1.02985 0.64851
-0.57449 1.16221 0.28097
0.08700 1.03336 -0.32323
0.55119 1.29702 0.60058
0.61874 1.03243 0.64330
-0.14961 1.18083 -0.58798
-0.00829 1.19927 -0.89617
-0.30937 1.23561 0.51482
0.64712 1.04734 -0.47391
0.06113 1.06433 -0.04775
0.64920 1.20098 -0.17862
0.26271 1.29700 -0.36662
-0.62689 1.18528 -0.63087
0.10252 1.10698 -0.64688
-0.25996 1.07027 0.11963
0.17432 1.19084 0.12643
0.36062 1.24974 0.44062
0.01149 1.00496 0.89310
0.42097 1.01722 0.24386
-0.22745 1.03094 0.72951
0.50503 1.05225 0.72653
-0.59064 1.14462 0.11655
0.21199 1.02732 0.28246
-0.34538 1.19847 0.77371
-0.14456 1.00141 0.04114
-0.55117 1.20466 0.10876
0.30494 1.13549 0.67991
-0.27832 1.19796 0.81067
-0.29915 1.16577 -0.36758
0.07608 1.24228 -0.40246
-0.44107 1.06567 0.73867
-0.29385 1.24682 0.13021
-0.44198 1.15810 0.65840
-0.58659 1.27583 -0.87264
0.53459 1.03546 -0.82701
0.32229 1.22303 0.34530
0.25817 1.03614 0.08120
0.62597 1.15117 0.63507
-0.13052 1.11940 0.64645
0.63931 1.14288 -0.16063
0.68545 1.06312 0.03288
-0.17857 1.29197 -0.81224
0.28033 1.07161 0.71982
-0.46060 1.17618 -0.14178
-0.33072 1.07152 -0.84818
-0.42876 1.04292 -0.71600
-0.01260 1.25297 0.51651
-0.11956 1.13589 -0.31897
0.64046 1.03791 0.78764
0.23583 1.25159 -0.59018
0.24752 1.23081 -0.77575
0.67067 1.25227 -0.89930
0.38730 1.18691 -0.24498
-0.61976 1.16328 -0.65399
0.57952 1.03223 0.01508
-0.30466 1.10957 -0.16904
-0.16385 1.08976 0.46898
0.36380 1.08882 0.63262
0.17036 1.25018 -0.01965
-0.48990 1.14435 0.65846
0.06991 1.19652 -0.11905
-0.49127 1.11912 0.68678
0.53633 1.03661 0.72495
-0.15974 1.25065 -0.10032
-0.51348 1.26194 0.69317
-0.25136 1.03286 0.10183
-0.10019 1.23003 0.43803
0.47517 1.22701 -0.26612
-0.22483 1.01189 0.04131
0.67934 1.16861 0.31270
0.04849 1.02148 -0.12501
0.40837 1.16940 -0.60047
-0.42393 1.22032 0.59755
-0.58487 1.21400 -0.35274
-0.44866 1.23170 -0.53264
0.11407 1.18160 0.86234
0.40737 1.13025 0.44729
0.00967 1.15872 -0.00842
-0.61685 1.00294 -0.39454
-0.57362 1.28874 0.57520
-0.41464 1.11233 0.32691
0.35464 1.17761 0.50853
-0.11785 1.01348 0.63445
-0.65085 1.15671 0.27303
-0.55602 1.17683 0.48725
0.44795 1.01139 -0.58240
-0.09388 1.22027 -0.22423
-0.17757 1.23155 -0.50766
-0.26511 1.11507 0.18228
0.15402 1.22047 -0.13524
0.57851 1.01192 -0.65308
-0.41861 1.08217 0.58079
-0.63064 1.12049 -0.85577
0.33864 1.02165 0.48462
0.28071 1.16603 -0.27545
-0.04607 1.01001 -0.19518
-0.59824 1.02524 0.41478
0.54831 1.07736 -0.41841
-0.54619 1.23809 0.52597
-0.00854 1.02251 -0.53303
-0.64939 1.10749 -0.02540
-0.58327 1.18632 -0.88592
0.45260 1.07902 -0.47900
0.28399 1.20287 -0.02170
-0.08514 1.20685 -0.34076
0.52156 1.27500 -0.77911
-0.51033 1.22759 0.62687
-0.38608 1.27835 0.17151
-0.65559 1.13074 0.02133
0.21014 1.08088 -0.70663
0.69927 1.14482 0.59507
-0.23084 1.17284 -0.50200
0.25958 1.26920 0.25644
0.42752 1.17056 -0.31017
-0.61352 1.01057 -0.70293
-0.18425 1.22094 -0.22733
0.37934 1.25966 0.45550
-0.22059 1.23203 0.80058
0.58373 1.04367 0.14930
0.16132 1.15144 0.11883
-0.16797 1.10828 0.38395
-0.23004 1.17318 -0.32786
-0.30363 1.21942 0.83695
0.53453 1.07050 -0.35125
-0.28020 1.06997 0.75925
-0.66466 1.18963 -0.73398
-0.62494 1.05601 -0.49874
-0.20757 1.16954 -0.32863
0.48891 1.14769 0.49201
-0.44120 1.26522 0.21305
-0.26291 1.10512 0.45710
-0.60302 1.02959 0.53602
0.01594 1.13277 -0.55686
-0.65439 1.14703 0.69393
0.27747 1.28827 0.71886
0.38926 1.12221 -0.07013
0.65486 1.01720 0.22559
0.35836 1.07779 0.34077
-0.06206 1.03556 -0.71997
-0.23278 1.26945 0.56906
-0.22227 1.08081 -0.44556
0.47903 1.03453 0.18687
-0.21176 1.00463 -0.12128
-0.60956 1.29212 0.64917
0.15114 1.14073 0.81087
0.22631 1.24881 0.27677
-0.34221 1.15336 0.44693
-0.28566 1.26157 0.37134
0.23782 1.21958 -0.36242
-0.59741 1.27920 -0.64136
0.43770 1.03174 0.47514
0.01978 1.02155 -0.03228
0.42981 1.28574 0.10549
0.58519 1.09716 0.88428
-0.22126 1.04988 -0.39756
-0.63598 1.21755 -0.76784
0.53105 1.14975 -0.10997
-0.11686 1.08106 -0.60810
0.42360 1.11822 -0.23142
-0.34558 1.22568 0.16428
0.64224 1.13159 -0.66082
0.66343 1.17361 -0.36454
0.63807 1.29884 -0.77582
-0.45248 1.19103 0.63940
0.40535 1.15837 0.84446
-0.30117 1.00936 0.24347
-0.24846 1.10796 0.39748
0.16233 1.10425 0.27983
-0.26809 1.20269 -0.04099
0.27387 1.01750 -0.33535
0.39563 1.15764 -0.70727
0.31656 1.29784 0.77736
0.68710 1.11609 -0.53038
0.20775 1.20055 -0.70983
-0.18947 1.00237 0.74855
-0.29837 1.28027 0.07616
0.57838 1.17237 -0.62321
0.56270 1.20263 0.47638
-0.01073 1.19170 -0.50928
-0.11999 1.03731 0.29488
0.05676 1.03199 0.71446
-0.09571 1.12960 -0.05360
0.63790 1.16059 0.51543
-0.05784 1.21703 -0.30615
0.08948 1.29309 0.63446
0.65164 1.18202 0.54538
0.25162 1.02499 0.23819
0.35607 1.26623 -0.07003
